ply
format ascii 1.0
element vertex 626
property float x
property float y
property float z
property uchar red
property uchar green
property uchar blue
property float nx
property float ny
property float nz
end_header
0.06828513741493225 0.039415955543518066 0.16184711456298828 115 79 61 0 1 0
0.0690406784415245 0.039385292679071426 0.16243739426136017 114 78 60 0 1 0
0.06981593370437622 0.0393369197845459 0.16296766698360443 113 77 59 0 1 0
0.07061534374952316 0.0392654687166214 0.16341827809810638 116 80 62 0 1 0
0.07142898440361023 0.039179667830467224 0.1638186126947403 122 86 68 0 1 0
0.07222826778888702 0.03910817578434944 0.16426892578601837 117 81 63 0 1 0
0.07303602993488312 0.03902782127261162 0.1646878570318222 112 74 57 0 1 0
0.07386131584644318 0.03892836719751358 0.16503849625587463 116 78 61 0 1 0
0.07469258457422256 0.0388212651014328 0.16536079347133636 121 83 66 0 1 0
0.0755181759595871 0.0387190580368042 0.16569942235946655 115 77 60 0 1 0
0.07633095979690552 0.03863018751144409 0.16608524322509766 124 86 69 0 1 0
0.0771384909749031 0.038546741008758545 0.16649018228054047 115 77 60 0 1 0
0.077952079474926 0.03845555707812309 0.16686643660068512 117 79 62 0 1 0
0.0787741169333458 0.03835316747426987 0.16720086336135864 120 82 65 0 1 0
0.07958121597766876 0.038268037140369415 0.16759787499904633 118 80 63 0 1 0
0.08037550747394562 0.03819872438907623 0.16805310547351837 114 78 60 0 1 0
0.08117149025201797 0.0381273478269577 0.16850073635578156 117 79 60 0 1 0
0.08195662498474121 0.0380706749856472 0.16900351643562317 118 80 61 0 1 0
0.08274128288030624 0.038015544414520264 0.16951270401477814 121 83 63 0 1 0
0.08351866900920868 0.03797174617648125 0.17006543278694153 117 79 62 0 1 0
0.08429678529500961 0.037928562611341476 0.1706216037273407 116 78 60 0 1 0
0.08507615327835083 0.03788525238633156 0.1711784154176712 116 78 62 0 1 0
0.08586013317108154 0.03783656656742096 0.1717156618833542 115 78 60 0 1 0
0.08665581047534943 0.037770599126815796 0.17218714952468872 114 77 59 0 1 0
0.08745673298835754 0.037696368992328644 0.17262683808803558 117 79 62 0 1 0
0.0882519781589508 0.0376318134367466 0.1731041967868805 117 82 63 0 1 0
0.08904381841421127 0.0375739149749279 0.1736079305410385 120 86 68 0 1 0
0.08984282612800598 0.03750388324260712 0.17406447231769562 116 81 63 0 1 0
0.09064455330371857 0.03742881864309311 0.1745012104511261 121 85 67 0 1 0
0.09145306795835495 0.03734000399708748 0.1748831868171692 117 82 63 0 1 0
0.0922563448548317 0.037260763347148895 0.17530275881290436 119 83 65 0 1 0
0.09305449575185776 0.03719211742281914 0.17576466500759125 114 78 59 0 1 0
0.09385669231414795 0.03711462765932083 0.1761910319328308 116 80 61 0 1 0
0.09466062486171722 0.03703249618411064 0.17659835517406464 106 70 52 0 1 0
0.09546947479248047 0.03693697229027748 0.17695072293281555 111 75 57 0 1 0
0.09627261757850647 0.036854129284620285 0.1773541122674942 116 80 62 0 1 0
0.09707903861999512 0.036760807037353516 0.17771394550800323 116 80 62 0 1 0
0.09787586331367493 0.03669370338320732 0.17818143963813782 115 79 61 0 1 0
0.09867445379495621 0.03662164881825447 0.1786285936832428 113 77 59 0 1 0
0.09947733581066132 0.03653496131300926 0.17901459336280823 106 70 52 0 1 0
0.10027994960546494 0.036447037011384964 0.17939482629299164 114 78 60 0 1 0
0.1010785847902298 0.03637250140309334 0.17983096837997437 107 71 53 0 1 0
0.1018642857670784 0.03635480999946594 0.180508092045784 111 75 58 0 1 0
0.10265758633613586 0.03631157428026199 0.18107864260673523 114 78 61 0 1 0
0.1034499853849411 0.03628024831414223 0.1817014217376709 111 74 58 0 1 0
0.10424896329641342 0.036219362169504166 0.18219873309135437 102 66 51 0 1 0
0.10505524277687073 0.03610973432660103 0.18248571455478668 104 68 55 0 1 0
0.10586396604776382 0.0359654575586319 0.18262052536010742 96 63 51 0 1 0
0.10666702687740326 0.03584756702184677 0.1828676015138626 60 39 27 0 1 0
0.10745850205421448 0.03586101159453392 0.183689147233963 44 29 22 0 1 0
0.10824429243803024 0.03606205806136131 0.1853417605161667 71 61 56 0 1 0
-0.012716397643089294 0.04663065820932388 0.1147521361708641 56 52 46 0 1 0
-0.010761067271232605 0.046114690601825714 0.11434546858072281 33 29 22 0 1 0
-0.00946565717458725 0.045846909284591675 0.11440352350473404 41 25 18 0 1 0
-0.008150614798069 0.045569613575935364 0.11443831771612167 53 33 25 0 1 0
-0.006997935473918915 0.04535302519798279 0.11458583176136017 73 48 39 0 1 0
-0.00602211058139801 0.04520367085933685 0.11486107110977173 99 66 59 0 1 0
-0.005276903510093689 0.045143578201532364 0.11530990898609161 113 75 64 0 1 0
-0.004706673324108124 0.045152295380830765 0.11589519679546356 118 81 68 0 1 0
-0.004037134349346161 0.04512263834476471 0.11640602350234985 118 84 66 0 1 0
-0.003305584192276001 0.045068807899951935 0.11686941981315613 112 77 62 0 1 0
-0.0025821030139923096 0.04501836374402046 0.117340087890625 115 79 62 0 1 0
-0.0017843097448349 0.0449383407831192 0.11775119602680206 116 82 64 0 1 0
-0.001039952039718628 0.04487975314259529 0.11820585280656815 114 79 60 0 1 0
-0.0003603622317314148 0.04484754428267479 0.11871505528688431 116 80 61 0 1 0
0.0002866610884666443 0.044829025864601135 0.11925356090068817 116 80 62 0 1 0
0.0009788423776626587 0.04479258507490158 0.11975608766078949 107 71 53 0 1 0
0.001636207103729248 0.04477085918188095 0.12029033899307251 118 82 64 0 1 0
0.002387396991252899 0.044710807502269745 0.12074508517980576 113 77 59 0 1 0
0.0032142028212547302 0.044619370251894 0.12113352119922638 114 78 60 0 1 0
0.004022225737571716 0.0445355661213398 0.1215377151966095 121 86 71 0 1 0
0.004873260855674744 0.04443347454071045 0.12190230190753937 114 78 60 0 1 0
0.005642414093017578 0.04436573386192322 0.12234027683734894 113 76 60 0 1 0
0.006334029138088226 0.04433109611272812 0.12285026162862778 109 73 58 0 1 0
0.007070712745189667 0.044277552515268326 0.12331985682249069 113 78 63 0 1 0
0.007852450013160706 0.044204775243997574 0.1237475797533989 110 75 60 0 1 0
0.008632265031337738 0.04413279518485069 0.12417703866958618 114 80 62 0 1 0
0.009383216500282288 0.04407341405749321 0.12463449686765671 118 82 66 0 1 0
0.010093696415424347 0.044031959027051926 0.12513242661952972 113 78 63 0 1 0
0.010823845863342285 0.043982166796922684 0.12561236321926117 115 80 66 0 1 0
0.011576332151889801 0.043922699987888336 0.12607091665267944 116 81 66 0 1 0
0.012321874499320984 0.043866485357284546 0.12653720378875732 111 76 61 0 1 0
0.013074778020381927 0.04380713775753975 0.1269966959953308 117 82 66 0 1 0
0.013834387063980103 0.04374489560723305 0.12744982540607452 117 81 66 0 1 0
0.014635555446147919 0.04366379231214523 0.12785938382148743 121 85 70 0 1 0
0.015445612370967865 0.04357846826314926 0.1282588243484497 115 80 65 0 1 0
0.01622641086578369 0.04350649565458298 0.12868919968605042 128 94 76 0 1 0
0.016993321478366852 0.043440964072942734 0.12913480401039124 117 82 65 0 1 0
0.017751850187778473 0.043379440903663635 0.12959006428718567 121 87 69 0 1 0
0.018472939729690552 0.043335724622011185 0.13008813560009003 115 80 62 0 1 0
0.019212618470191956 0.04328353330492973 0.13056661188602448 117 81 63 0 1 0
0.01995592564344406 0.04322987049818039 0.13104204833507538 123 87 69 0 1 0
0.02068861573934555 0.04318157210946083 0.1315310299396515 119 81 64 0 1 0
0.02144460380077362 0.043122291564941406 0.13199374079704285 124 88 70 0 1 0
0.022186823189258575 0.043069906532764435 0.13247378170490265 125 89 71 0 1 0
0.0229128897190094 0.043025754392147064 0.13297471404075623 119 83 64 0 1 0
0.023680061101913452 0.042961589992046356 0.13342662155628204 121 85 67 0 1 0
0.02448108047246933 0.042880620807409286 0.13383661210536957 117 81 63 0 1 0
0.02529653161764145 0.042792219668626785 0.13422763347625732 123 87 69 0 1 0
0.026112370193004608 0.04270337149500847 0.13461698591709137 123 89 71 0 1 0
0.026915445923805237 0.04262077063322067 0.13502176105976105 125 92 74 0 1 0
0.02771112322807312 0.04254179820418358 0.13543550670146942 130 94 76 0 1 0
0.028512701392173767 0.0424596332013607 0.1358407735824585 121 85 67 0 1 0
0.029302962124347687 0.04238321632146835 0.13626062870025635 122 86 68 0 1 0
0.030097410082817078 0.04230450838804245 0.13667432963848114 120 84 66 0 1 0
0.03087017685174942 0.042237214744091034 0.13711769878864288 125 90 71 0 1 0
0.03163628280162811 0.04217354208230972 0.13757075369358063 124 88 70 0 1 0
0.03241010755300522 0.042105820029973984 0.13801327347755432 117 81 63 0 1 0
0.03317992389202118 0.04204034060239792 0.1384618580341339 123 87 69 0 1 0
0.033917464315891266 0.041992709040641785 0.13895843923091888 125 89 71 0 1 0
0.034635357558727264 0.04195639491081238 0.1394861787557602 120 84 66 0 1 0
0.03536336123943329 0.04191502183675766 0.14000126719474792 119 83 65 0 1 0
0.03613036870956421 0.04185214638710022 0.14045868813991547 125 89 71 0 1 0
0.0369221493601799 0.04177530109882355 0.14087806642055511 123 87 69 0 1 0
0.03771969676017761 0.04169502854347229 0.14128786325454712 123 87 69 0 1 0
0.03852381557226181 0.041610777378082275 0.141686350107193 128 92 74 0 1 0
0.039302147924900055 0.04154138267040253 0.14212581515312195 129 93 75 0 1 0
0.04009470343589783 0.041463617235422134 0.14254187047481537 129 93 75 0 1 0
0.0409017950296402 0.041377048939466476 0.1429329365491867 125 89 69 0 1 0
0.04171764850616455 0.041284892708063126 0.14330773055553436 128 92 72 0 1 0
0.04253573715686798 0.041190966963768005 0.14367681741714478 124 87 68 0 1 0
0.0433063730597496 0.04112574830651283 0.14412733912467957 119 82 64 0 1 0
0.04404854774475098 0.04107831418514252 0.14462924003601074 115 77 60 0 1 0
0.04478207230567932 0.04103679582476616 0.14514894783496857 122 84 65 0 1 0
0.04550839215517044 0.04100044444203377 0.1456846445798874 118 82 64 0 1 0
0.046233922243118286 0.040965329855680466 0.14622503519058228 118 82 64 0 1 0
0.04696280509233475 0.040928810834884644 0.1467624306678772 115 79 61 0 1 0
0.04769685119390488 0.040889665484428406 0.14729316532611847 118 80 60 0 1 0
0.04844792187213898 0.04083996266126633 0.14779354631900787 117 79 60 0 1 0
0.049195270985364914 0.04079322889447212 0.14830349385738373 120 83 65 0 1 0
0.04993117228150368 0.04075479134917259 0.14883914589881897 120 84 65 0 1 0
0.0506606325507164 0.04072151333093643 0.14939142763614655 114 78 60 0 1 0
0.051371537148952484 0.040701963007450104 0.1499866247177124 114 78 60 0 1 0
0.052142903208732605 0.040641315281391144 0.15045805275440216 116 80 62 0 1 0
0.05294201523065567 0.04056126996874809 0.15087033808231354 115 79 61 0 1 0
0.053764715790748596 0.04046410322189331 0.15122954547405243 116 80 62 0 1 0
0.05461807921528816 0.04034405201673508 0.15151691436767578 122 85 66 0 1 0
0.05541207641363144 0.04026641696691513 0.1519349366426468 115 77 58 0 1 0
0.05616603419184685 0.040218424052000046 0.15244567394256592 110 72 53 0 1 0
0.05693813040852547 0.04015737399458885 0.15291601419448853 110 72 53 0 1 0
0.05771254748106003 0.04009482264518738 0.15338195860385895 115 77 58 0 1 0
0.05846571549773216 0.04004896804690361 0.1539013534784317 116 78 60 0 1 0
0.05924824997782707 0.03998076170682907 0.15435010194778442 118 80 61 0 1 0
0.060017067939043045 0.03992356359958649 0.1548343449831009 119 81 63 0 1 0
0.060775820165872574 0.03987489640712738 0.15534669160842896 120 82 65 0 1 0
0.061502855271101 0.03985286504030228 0.15594635903835297 117 79 60 0 1 0
0.06221088767051697 0.039848074316978455 0.15660406649112701 114 76 59 0 1 0
0.06297467648983002 0.039798274636268616 0.15711618959903717 116 78 61 0 1 0
0.06372951716184616 0.03975679725408554 0.15765658020973206 113 75 58 0 1 0
0.0645078644156456 0.03969584032893181 0.1581333428621292 119 81 64 0 1 0
0.06528782099485397 0.03963380679488182 0.1586069017648697 119 81 63 0 1 0
0.06607821583747864 0.039562735706567764 0.15905049443244934 116 78 61 0 1 0
0.06684105098247528 0.03951682150363922 0.15957890450954437 121 83 66 0 1 0
0.06756874918937683 0.03950437530875206 0.16022160649299622 122 84 67 0 1 0
0.06831355392932892 0.03947783261537552 0.16081838309764862 115 79 61 0 1 0
0.06906962394714355 0.03944207355380058 0.16138522326946259 113 77 59 0 1 0
0.0698494166135788 0.03938445448875427 0.16187812387943268 116 80 62 0 1 0
0.07062357664108276 0.03933297097682953 0.1623927652835846 118 82 64 0 1 0
0.07145240157842636 0.03922686725854874 0.16271831095218658 117 81 63 0 1 0
0.07225494086742401 0.03914662450551987 0.16313299536705017 117 81 63 0 1 0
0.07307297736406326 0.03904975205659866 0.16348899900913239 116 79 62 0 1 0
0.0738716721534729 0.03897267207503319 0.16391399502754211 119 81 64 0 1 0
0.07468543201684952 0.03887886554002762 0.1642794907093048 114 76 59 0 1 0
0.07550056278705597 0.03878263011574745 0.1646355241537094 122 84 67 0 1 0
0.07632164657115936 0.03867855295538902 0.16496258974075317 119 81 62 0 1 0
0.07713760435581207 0.03857903555035591 0.16530494391918182 118 80 63 0 1 0
0.07794331014156342 0.03849054127931595 0.16568616032600403 116 78 61 0 1 0
0.07875256985425949 0.038396939635276794 0.16604822874069214 120 82 65 0 1 0
0.07954941689968109 0.03831784799695015 0.16646255552768707 119 82 65 0 1 0
0.08034373819828033 0.038241639733314514 0.16688717901706696 112 76 58 0 1 0
0.08114006370306015 0.03816256672143936 0.16730111837387085 116 78 61 0 1 0
0.08192598074674606 0.03809719905257225 0.16776561737060547 118 80 61 0 1 0
0.08270111680030823 0.03804713487625122 0.1682874709367752 117 79 60 0 1 0
0.08346465229988098 0.03801480308175087 0.16887664794921875 116 78 59 0 1 0
0.08423449099063873 0.03797553852200508 0.16944114863872528 115 77 58 0 1 0
0.08500023931264877 0.03794438764452934 0.170037642121315 116 78 61 0 1 0
0.08578398078680038 0.03788774088025093 0.17053864896297455 113 76 59 0 1 0
0.08655804395675659 0.03784763813018799 0.17110350728034973 111 75 57 0 1 0
0.08734893053770065 0.03778175264596939 0.17157050967216492 112 74 57 0 1 0
0.08814333379268646 0.037710271775722504 0.17201614379882812 116 83 64 0 1 0
0.08893581479787827 0.03764226660132408 0.17247529327869415 118 84 66 0 1 0
0.08973200619220734 0.037567730993032455 0.17290914058685303 117 83 65 0 1 0
0.09052437543869019 0.03750033304095268 0.1733708679676056 112 78 60 0 1 0
0.09132140874862671 0.03742406889796257 0.1737978756427765 119 83 65 0 1 0
0.09211461246013641 0.03735543414950371 0.17425492405891418 114 78 60 0 1 0
0.09290941059589386 0.03728364780545235 0.1746995747089386 119 83 62 0 1 0
0.09370386600494385 0.03721267729997635 0.17514751851558685 116 80 60 0 1 0
0.09450475126504898 0.0371265672147274 0.1755346804857254 118 82 64 0 1 0
0.09531079232692719 0.03702610358595848 0.1758633255958557 113 77 59 0 1 0
0.09610988199710846 0.03694091737270355 0.17625285685062408 115 79 61 0 1 0
0.09690853208303452 0.03685544803738594 0.17664067447185516 114 78 60 0 1 0
0.09770448505878448 0.036776352673769 0.17705413699150085 115 79 61 0 1 0
0.09850586950778961 0.03667912632226944 0.1773926168680191 112 76 58 0 1 0
0.09929575771093369 0.03661732003092766 0.17787671089172363 113 77 59 0 1 0
0.10009163618087769 0.03653523698449135 0.1782768815755844 108 72 54 0 1 0
0.10088418424129486 0.03646465763449669 0.1787247210741043 114 78 60 0 1 0
0.10166097432374954 0.03646257519721985 0.1794603019952774 111 75 56 0 1 0
0.10245174169540405 0.03640812262892723 0.17997774481773376 110 74 57 0 1 0
0.10324588418006897 0.03633981570601463 0.18043717741966248 116 79 63 0 1 0
0.10403662919998169 0.03629295900464058 0.18098817765712738 106 69 54 0 1 0
0.10483967512845993 0.036168817430734634 0.18120922148227692 100 65 55 0 1 0
0.10563607513904572 0.03608037903904915 0.1815817952156067 87 57 46 0 1 0
0.1064220666885376 0.036087680608034134 0.1823677271604538 52 32 23 0 1 0
0.10720983892679214 0.03611668571829796 0.1832513064146042 42 28 24 0 1 0
0.10799437016248703 0.036279913038015366 0.18472526967525482 77 67 61 0 1 0
-0.010954536497592926 0.04641486704349518 0.11418792605400085 56 54 47 0 1 0
-0.009718388319015503 0.046168819069862366 0.11429014056921005 32 27 18 0 1 0
-0.008514493703842163 0.04593348875641823 0.11440855264663696 35 23 17 0 1 0
-0.0071961283683776855 0.045652035623788834 0.11443407088518143 54 35 27 0 1 0
-0.00588148832321167 0.045369889587163925 0.11445300281047821 62 38 29 0 1 0
-0.004769720137119293 0.04516521096229553 0.11461775004863739 92 59 51 0 1 0
-0.004138752818107605 0.045148815959692 0.11514877527952194 119 82 70 0 1 0
-0.0034946054220199585 0.045127756893634796 0.11567189544439316 116 82 64 0 1 0
-0.00278385728597641 0.04508065804839134 0.11614447087049484 111 75 61 0 1 0
-0.0020196884870529175 0.04501238837838173 0.11657527834177017 111 76 61 0 1 0
-0.0012515485286712646 0.04494253545999527 0.1170029267668724 119 83 65 0 1 0
-0.0004746466875076294 0.04486913979053497 0.1174233928322792 114 77 60 0 1 0
0.00019785016775131226 0.04483822360634804 0.11793038249015808 113 78 59 0 1 0
0.0008521378040313721 0.04481518641114235 0.11845453828573227 115 79 62 0 1 0
0.0015687942504882812 0.04476698860526085 0.118927963078022 109 73 55 0 1 0
0.0022439733147621155 0.044736213982105255 0.11943811923265457 114 78 61 0 1 0
0.0029552876949310303 0.044690828770399094 0.11991875618696213 107 71 53 0 1 0
0.0036532431840896606 0.04465131834149361 0.12041239440441132 115 79 61 0 1 0
0.004468269646167755 0.04456286132335663 0.12080325186252594 122 87 72 0 1 0
0.005298420786857605 0.044467780739068985 0.12117952853441238 119 83 65 0 1 0
0.006124652922153473 0.04437408223748207 0.12155811488628387 115 79 61 0 1 0
0.006871044635772705 0.044314321130514145 0.12200923264026642 114 77 60 0 1 0
0.007505737245082855 0.04430282860994339 0.12256529182195663 113 78 63 0 1 0
0.00825376808643341 0.044242896139621735 0.12301719933748245 117 82 67 0 1 0
0.009021416306495667 0.04417452588677406 0.1234508827328682 114 80 62 0 1 0
0.009796127676963806 0.044103074818849564 0.12387780845165253 113 79 61 0 1 0
0.010562710464000702 0.04403519630432129 0.12431264668703079 113 79 62 0 1 0
0.011256136000156403 0.043999865651130676 0.12482026219367981 116 82 67 0 1 0
0.011970631778240204 0.043955545872449875 0.12530861794948578 118 83 68 0 1 0
0.012694478034973145 0.043907344341278076 0.12578889727592468 109 75 57 0 1 0
0.013434961438179016 0.04385189339518547 0.12625326216220856 115 80 64 0 1 0
0.014223858714103699 0.043774571269750595 0.12666797637939453 117 82 67 0 1 0
0.015013471245765686 0.04369682818651199 0.12708154320716858 122 86 70 0 1 0
0.015791676938533783 0.043624263256788254 0.12750689685344696 120 84 69 0 1 0
0.016593150794506073 0.0435408391058445 0.1279069036245346 124 89 72 0 1 0
0.01731070876121521 0.0434965156018734 0.12839816510677338 113 79 61 0 1 0
0.018089555203914642 0.043423671275377274 0.128822922706604 119 85 67 0 1 0
0.01885347068309784 0.04335787147283554 0.12926432490348816 112 78 60 0 1 0
0.019563965499401093 0.043317653238773346 0.12976683676242828 116 80 62 0 1 0
0.020301081240177155 0.04326505586504936 0.13024048507213593 117 81 63 0 1 0
0.02100471407175064 0.04322892427444458 0.13075436651706696 119 82 65 0 1 0
0.021734371781349182 0.04318058490753174 0.13123957812786102 118 85 67 0 1 0
0.02251637727022171 0.04310685023665428 0.1316634565591812 126 88 71 0 1 0
0.02323710173368454 0.04306339845061302 0.13216154277324677 122 86 68 0 1 0
0.023966863751411438 0.04301583766937256 0.13265027105808258 120 84 66 0 1 0
0.024740681052207947 0.04294649139046669 0.13308556377887726 121 85 67 0 1 0
0.025498345494270325 0.04288534075021744 0.13354136049747467 122 86 68 0 1 0
0.026341669261455536 0.04278065636754036 0.1338881105184555 121 85 66 0 1 0
0.027161143720149994 0.04268770292401314 0.1342635154724121 128 93 75 0 1 0
0.02792513370513916 0.0426231287419796 0.13471035659313202 124 88 70 0 1 0
0.02870389074087143 0.0425509549677372 0.13513793051242828 127 91 73 0 1 0
0.029451735317707062 0.0424950011074543 0.13560715317726135 122 86 68 0 1 0
0.03022623062133789 0.04242515563964844 0.13604089617729187 123 87 69 0 1 0
0.031047284603118896 0.042330436408519745 0.13641005754470825 128 92 74 0 1 0
0.03181261569261551 0.04226534813642502 0.13685593008995056 117 82 63 0 1 0
0.032555773854255676 0.04221240431070328 0.13733384013175964 121 85 67 0 1 0
0.03329722583293915 0.04216068610548973 0.13781552016735077 125 89 71 0 1 0
0.03402196615934372 0.042118534445762634 0.13832314312458038 124 88 70 0 1 0
0.0348023846745491 0.04204583540558815 0.13875003159046173 120 84 66 0 1 0
0.035542577505111694 0.041995707899332047 0.13923749327659607 123 87 68 0 1 0
0.03627712279558182 0.041949160397052765 0.13973522186279297 123 87 69 0 1 0
0.037034422159194946 0.041890013962984085 0.1401994526386261 120 84 66 0 1 0
0.037809960544109344 0.04182054474949837 0.14063586294651031 125 89 71 0 1 0
0.038617707788944244 0.04173232987523079 0.14102083444595337 124 88 70 0 1 0
0.039427176117897034 0.04164278134703636 0.14140160381793976 128 92 74 0 1 0
0.04021783173084259 0.04156404733657837 0.1418118178844452 129 93 75 0 1 0
0.041002340614795685 0.04148884117603302 0.14223164319992065 124 88 68 0 1 0
0.041788339614868164 0.041412655264139175 0.14264856278896332 124 89 68 0 1 0
0.04257778823375702 0.04133424162864685 0.14305904507637024 117 79 60 0 1 0
0.04337038844823837 0.04125373810529709 0.1434633433818817 124 86 67 0 1 0
0.04412628710269928 0.04119591414928436 0.1439320296049118 124 87 67 0 1 0
0.04485682398080826 0.04115431755781174 0.14444765448570251 113 74 58 0 1 0
0.045544423162937164 0.04114064201712608 0.14504466950893402 121 85 67 0 1 0
0.046238355338573456 0.04112407937645912 0.14563511312007904 118 82 64 0 1 0
0.046974800527095795 0.041081059724092484 0.1461501270532608 117 81 63 0 1 0
0.04772579297423363 0.041029080748558044 0.14663976430892944 118 80 62 0 1 0
0.048448823392391205 0.04099607840180397 0.14718590676784515 116 78 59 0 1 0
0.04917582497000694 0.04096125811338425 0.1477278470993042 121 83 64 0 1 0
0.04990465193986893 0.0409260056912899 0.1482696682214737 117 81 63 0 1 0
0.05061065033078194 0.040907248854637146 0.14886197447776794 122 86 66 0 1 0
0.05134724825620651 0.040868453681468964 0.14939568936824799 116 80 62 0 1 0
0.05212175101041794 0.04080379754304886 0.14985217154026031 116 80 62 0 1 0
0.05292433872818947 0.040719326585531235 0.15024864673614502 113 77 59 0 1 0
0.05368003621697426 0.04066828638315201 0.15074686706066132 112 76 59 0 1 0
0.05450809374451637 0.04056502506136894 0.1510852873325348 119 81 64 0 1 0
0.05538910999894142 0.040421903133392334 0.15129952132701874 114 76 57 0 1 0
0.05610038340091705 0.040403757244348526 0.1518995314836502 116 78 59 0 1 0
0.05694424360990524 0.04028664901852608 0.15219233930110931 113 75 57 0 1 0
0.057720333337783813 0.04022029787302017 0.15264292061328888 114 76 57 0 1 0
0.05839088559150696 0.04023605212569237 0.15335272252559662 116 78 60 0 1 0
0.059155285358428955 0.04018028825521469 0.15383854508399963 109 71 54 0 1 0
0.05990388244390488 0.04013755917549133 0.15436647832393646 116 78 60 0 1 0
0.060702648013830185 0.04005502909421921 0.15476778149604797 116 78 59 0 1 0
0.06146685406565666 0.040000561624765396 0.1552591174840927 117 79 60 0 1 0
0.06215967610478401 0.040006060153245926 0.15594521164894104 115 77 60 0 1 0
0.06292451918125153 0.039952944964170456 0.15644311904907227 115 77 60 0 1 0
0.06367209553718567 0.039915211498737335 0.15699195861816406 114 76 59 0 1 0
0.06443615257740021 0.03986416757106781 0.15749816596508026 115 77 60 0 1 0
0.06520944833755493 0.0398055836558342 0.15798014402389526 118 80 63 0 1 0
0.0660027414560318 0.039729438722133636 0.15840426087379456 119 81 64 0 1 0
0.06678250432014465 0.03966551274061203 0.15886899828910828 117 79 61 0 1 0
0.06753716617822647 0.03962519019842148 0.15941324830055237 121 83 66 0 1 0
0.06825518608093262 0.03962056711316109 0.16007904708385468 115 79 61 0 1 0
0.0689617320895195 0.03962932899594307 0.1607925444841385 115 79 61 0 1 0
0.06973639875650406 0.0395742729306221 0.16129128634929657 111 75 57 0 1 0
0.07051747292280197 0.039513442665338516 0.16177088022232056 114 78 60 0 1 0
0.0713174119591713 0.03943388909101486 0.16218635439872742 116 80 62 0 1 0
0.07212461531162262 0.039346519857645035 0.16257454454898834 119 83 65 0 1 0
0.07293157279491425 0.03925883397459984 0.16296106576919556 115 79 61 0 1 0
0.0737406313419342 0.03916825354099274 0.16333693265914917 114 76 59 0 1 0
0.07456080615520477 0.039064716547727585 0.16366659104824066 116 78 61 0 1 0
0.07538247108459473 0.03895819932222366 0.16398461163043976 116 78 62 0 1 0
0.07621327042579651 0.03883974626660347 0.16425900161266327 120 82 63 0 1 0
0.07702995836734772 0.03873574361205101 0.16458329558372498 125 87 70 0 1 0
0.0778244137763977 0.03865689039230347 0.16499659419059753 116 78 61 0 1 0
0.07862120866775513 0.03857484459877014 0.16539818048477173 117 79 62 0 1 0
0.07941803336143494 0.03849226236343384 0.1657974123954773 118 80 63 0 1 0
0.08022791147232056 0.038392405956983566 0.1661333590745926 114 78 60 0 1 0
0.08103430271148682 0.03829570487141609 0.16647984087467194 113 77 59 0 1 0
0.08181627094745636 0.038230687379837036 0.16694188117980957 115 77 59 0 1 0
0.08257199078798294 0.03820239380002022 0.16753990948200226 116 78 59 0 1 0
0.08334323763847351 0.038154371082782745 0.16806624829769135 120 82 64 0 1 0
0.08411730825901031 0.03810357302427292 0.16858309507369995 117 79 62 0 1 0
0.08489042520523071 0.0380554161965847 0.16911067068576813 115 77 58 0 1 0
0.0856693759560585 0.037999652326107025 0.1696104109287262 121 83 66 0 1 0
0.08643818646669388 0.03796114772558212 0.17017614841461182 112 76 58 0 1 0
0.08720734715461731 0.03792422264814377 0.17074918746948242 110 72 55 0 1 0
0.08799859136343002 0.03785190358757973 0.17118805646896362 109 73 55 0 1 0
0.0887942761182785 0.03777168691158295 0.17159661650657654 118 84 66 0 1 0
0.08958045393228531 0.03770831599831581 0.17206990718841553 119 84 66 0 1 0
0.0903685912489891 0.03764187544584274 0.1725316047668457 114 80 62 0 1 0
0.09115681052207947 0.03757573291659355 0.1729947030544281 118 81 64 0 1 0
0.09194409102201462 0.03751198202371597 0.17346739768981934 118 82 64 0 1 0
0.09273790568113327 0.037434861063957214 0.1738877296447754 117 82 63 0 1 0
0.09353335201740265 0.037353627383708954 0.17429155111312866 117 81 61 0 1 0
0.09433046728372574 0.0372675321996212 0.17467567324638367 117 81 62 0 1 0
0.09512072801589966 0.037197045981884 0.17512165009975433 107 71 53 0 1 0
0.0959140881896019 0.0371185801923275 0.175535649061203 114 78 60 0 1 0
0.09670945256948471 0.03703385218977928 0.17592404782772064 114 78 60 0 1 0
0.0975119024515152 0.036926768720149994 0.17622125148773193 116 80 62 0 1 0
0.09830566495656967 0.036842264235019684 0.1766091287136078 115 79 61 0 1 0
0.09909775108098984 0.03676158934831619 0.17701217532157898 111 75 57 0 1 0
0.0998862236738205 0.036692552268505096 0.1774628609418869 111 75 57 0 1 0
0.10067383199930191 0.03662736713886261 0.1779295653104782 111 75 57 0 1 0
0.10145517438650131 0.03658987581729889 0.17851172387599945 112 76 58 0 1 0
0.10223149508237839 0.03658260777592659 0.17922160029411316 112 75 59 0 1 0
0.10302719473838806 0.03648935258388519 0.1795729696750641 112 75 60 0 1 0
0.10380874574184418 0.03647306188941002 0.18024829030036926 113 76 61 0 1 0
0.10461277514696121 0.036323435604572296 0.18036045134067535 101 69 59 0 1 0
0.10540354251861572 0.03625057637691498 0.1807965338230133 63 41 31 0 1 0
0.10618425160646439 0.03627115860581398 0.18163271248340607 43 25 17 0 1 0
0.10695429891347885 0.036463189870119095 0.18321053683757782 47 36 31 0 1 0
0.10773493349552155 0.036669909954071045 0.1848628669977188 76 67 61 0 1 0
-0.010119400918483734 0.046548064798116684 0.11428480595350266 48 48 40 0 1 0
-0.008698947727680206 0.04622810333967209 0.1142459362745285 31 25 18 0 1 0
-0.007248803973197937 0.04589404910802841 0.11417403817176819 38 26 19 0 1 0
-0.00582103431224823 0.045566100627183914 0.1141073927283287 50 33 24 0 1 0
-0.0044701844453811646 0.045265864580869675 0.11408796906471252 61 37 30 0 1 0
-0.0036438852548599243 0.045171186327934265 0.11446306854486465 82 50 42 0 1 0
-0.003047764301300049 0.04516797885298729 0.11501672863960266 119 82 70 0 1 0
-0.0023682191967964172 0.04513204097747803 0.11550752073526382 110 74 60 0 1 0
-0.0016074702143669128 0.04506376385688782 0.11593496054410934 114 79 63 0 1 0
-0.0008015632629394531 0.04497721046209335 0.11632595956325531 118 83 64 0 1 0
-2.060830593109131e-05 0.04490064084529877 0.11673656105995178 117 81 63 0 1 0
0.0006538555026054382 0.044867563992738724 0.11723495274782181 115 79 61 0 1 0
0.0013187453150749207 0.04483882337808609 0.11774307489395142 118 82 64 0 1 0
0.0020430833101272583 0.044785939157009125 0.11820279806852341 109 73 55 0 1 0
0.002713114023208618 0.044755835086107254 0.11870988458395004 113 77 59 0 1 0
0.0034139007329940796 0.04471330717206001 0.1191922277212143 107 71 53 0 1 0
0.004066184163093567 0.04469149187207222 0.11971845477819443 115 79 61 0 1 0
0.004840247333049774 0.04461869224905968 0.12013892829418182 119 84 69 0 1 0
0.005690261721611023 0.044513534754514694 0.12049101293087006 120 84 66 0 1 0
0.006503991782665253 0.044423505663871765 0.12087429314851761 116 80 62 0 1 0
0.007268868386745453 0.044354259967803955 0.12130149453878403 114 78 59 0 1 0
0.007973723113536835 0.044311024248600006 0.12178461998701096 116 81 65 0 1 0
0.008679002523422241 0.044267915189266205 0.12226872146129608 115 81 64 0 1 0
0.009417712688446045 0.04421047493815422 0.1227223202586174 115 81 64 0 1 0
0.010159611701965332 0.044151779264211655 0.12317350506782532 112 78 60 0 1 0
0.010911434888839722 0.04408881440758705 0.1236155703663826 114 80 61 0 1 0
0.011599600315093994 0.04405435547232628 0.12412098795175552 118 84 66 0 1 0
0.012306317687034607 0.044012006372213364 0.12460975348949432 117 82 66 0 1 0
0.01305023580789566 0.043953195214271545 0.12506231665611267 112 77 61 0 1 0
0.01382458209991455 0.04388067126274109 0.12548425793647766 112 77 62 0 1 0
0.01460953801870346 0.04380325600504875 0.12589503824710846 120 85 70 0 1 0
0.015404298901557922 0.04372122511267662 0.1262950599193573 118 82 66 0 1 0
0.016198426485061646 0.043639324605464935 0.12669508159160614 119 82 67 0 1 0
0.01696839928627014 0.04356854781508446 0.12712045013904572 120 83 69 0 1 0
0.0177433043718338 0.04349543899297714 0.12754040956497192 124 90 72 0 1 0
0.01846340298652649 0.04344823583960533 0.1280207633972168 117 83 65 0 1 0
0.01920551061630249 0.043390847742557526 0.12847782671451569 113 79 61 0 1 0
0.0199267715215683 0.04334363713860512 0.1289592981338501 118 81 63 0 1 0
0.020627543330192566 0.043306637555360794 0.12946568429470062 112 76 58 0 1 0
0.02135724574327469 0.04325602576136589 0.12994042038917542 121 85 67 0 1 0
0.02205595374107361 0.0432208850979805 0.13045288622379303 117 82 64 0 1 0
0.022817127406597137 0.04315541312098503 0.13089294731616974 128 91 73 0 1 0
0.023552536964416504 0.043102819472551346 0.13136447966098785 120 84 66 0 1 0
0.02426527440547943 0.04306183382868767 0.13186492025852203 119 83 65 0 1 0
0.025035157799720764 0.042992446571588516 0.13229626417160034 125 89 71 0 1 0
0.025800704956054688 0.042925287038087845 0.13273310661315918 123 87 68 0 1 0
0.026623614132404327 0.04282878339290619 0.13309702277183533 120 86 66 0 1 0
0.027439303696155548 0.04273560643196106 0.13346850872039795 125 89 71 0 1 0
0.028213806450366974 0.042663488537073135 0.13389238715171814 123 87 69 0 1 0
0.02897462248802185 0.042598526924848557 0.13433429598808289 127 91 73 0 1 0
0.029763706028461456 0.042518701404333115 0.1347385197877884 117 81 63 0 1 0
0.03050655871629715 0.04246334359049797 0.13520511984825134 125 89 71 0 1 0
0.03130234777927399 0.04237980395555496 0.13559958338737488 123 88 69 0 1 0
0.03206516057252884 0.042313896119594574 0.13603930175304413 116 82 62 0 1 0
0.03280869126319885 0.04225857928395271 0.13650672137737274 119 83 65 0 1 0
0.033561840653419495 0.042198214679956436 0.13696137070655823 121 86 68 0 1 0
0.0342816561460495 0.04215652123093605 0.1374654620885849 123 87 69 0 1 0
0.035030655562877655 0.04209898039698601 0.13792841136455536 119 83 65 0 1 0
0.03575839102268219 0.042053669691085815 0.13842430710792542 121 85 67 0 1 0
0.03648858517408371 0.04200739413499832 0.13891835510730743 123 87 69 0 1 0
0.03721756488084793 0.04196224734187126 0.1394161432981491 127 91 73 0 1 0
0.03800145536661148 0.041885700076818466 0.13982969522476196 125 89 71 0 1 0
0.038792096078395844 0.041805099695920944 0.14023202657699585 118 82 64 0 1 0
0.03959217667579651 0.0417187325656414 0.1406182497739792 127 91 73 0 1 0
0.040387071669101715 0.04163515567779541 0.14101167023181915 127 91 73 0 1 0
0.04115854948759079 0.041565410792827606 0.14144299924373627 133 97 79 0 1 0
0.04195798188447952 0.041478704661130905 0.14182712137699127 128 91 71 0 1 0
0.04274391382932663 0.04139995202422142 0.1422330141067505 129 91 72 0 1 0
0.04353269934654236 0.04131925851106644 0.14263318479061127 126 88 69 0 1 0
0.04427625983953476 0.04126667231321335 0.14311249554157257 122 84 65 0 1 0
0.04503179341554642 0.04120686650276184 0.14357183873653412 115 77 60 0 1 0
0.04574614018201828 0.041173581033945084 0.14410729706287384 121 85 67 0 1 0
0.046422332525253296 0.04116569086909294 0.14471684396266937 116 80 62 0 1 0
0.047143518924713135 0.04112977534532547 0.14524737000465393 119 83 65 0 1 0
0.04789852723479271 0.041072309017181396 0.1457163691520691 115 79 61 0 1 0
0.048648472875356674 0.04101850092411041 0.14619645476341248 119 81 62 0 1 0
0.0493474043905735 0.04099942743778229 0.14677903056144714 118 80 61 0 1 0
0.05006106197834015 0.04097147658467293 0.14733701944351196 117 81 61 0 1 0
0.0507642962038517 0.0409516766667366 0.14792051911354065 124 88 68 0 1 0
0.05150275677442551 0.04090850055217743 0.14843592047691345 116 80 62 0 1 0
0.05221337080001831 0.04088560491800308 0.1490129977464676 116 80 62 0 1 0
0.05295624956488609 0.04084083065390587 0.14952564239501953 112 76 58 0 1 0
0.053771309554576874 0.040744561702013016 0.14988309144973755 116 79 64 0 1 0
0.05457378178834915 0.04065687954425812 0.1502658724784851 119 80 66 0 1 0
0.05545355752110481 0.040511563420295715 0.15047164261341095 122 84 65 0 1 0
0.056149471551179886 0.0405021533370018 0.15109339356422424 114 76 57 0 1 0
0.056932706385850906 0.0404280461370945 0.1515168994665146 107 69 50 0 1 0
0.05776609852910042 0.04031527414917946 0.15182004868984222 114 76 57 0 1 0
0.05848986655473709 0.0402868278324604 0.15238547325134277 114 76 57 0 1 0
0.059224821627140045 0.04025067761540413 0.15292811393737793 113 75 58 0 1 0
0.059943944215774536 0.04022817313671112 0.15351498126983643 120 82 63 0 1 0
0.06070192903280258 0.04017546772956848 0.15400750935077667 116 78 61 0 1 0
0.061486583203077316 0.040101319551467896 0.15443220734596252 119 81 63 0 1 0
0.06222664937376976 0.040064334869384766 0.15497605502605438 117 79 62 0 1 0
0.0629454180598259 0.04004641994833946 0.15558256208896637 115 77 60 0 1 0
0.06366902589797974 0.04002593830227852 0.15618251264095306 113 75 58 0 1 0
0.0644383355975151 0.03996707871556282 0.1566590815782547 114 76 59 0 1 0
0.06518812477588654 0.039925940334796906 0.1571941077709198 121 83 67 0 1 0
0.06595897674560547 0.03986676037311554 0.1576707512140274 120 82 65 0 1 0
0.06673409044742584 0.03980407863855362 0.15813623368740082 117 79 60 0 1 0
0.06750933825969696 0.03974156454205513 0.1586025357246399 116 78 61 0 1 0
0.06825529783964157 0.03970710188150406 0.1591629534959793 121 83 66 0 1 0
0.06898319721221924 0.03969131410121918 0.15978743135929108 117 81 63 0 1 0
0.06970079243183136 0.03968760743737221 0.16045460104942322 116 80 62 0 1 0
0.07046803832054138 0.039636772125959396 0.16096410155296326 117 81 63 0 1 0
0.07128049433231354 0.03954073786735535 0.1613200604915619 118 82 64 0 1 0
0.07210743427276611 0.03942876681685448 0.16162052750587463 116 80 62 0 1 0
0.07292436063289642 0.039325814694166183 0.16195069253444672 120 83 66 0 1 0
0.07370047271251678 0.03926558420062065 0.16242778301239014 116 78 61 0 1 0
0.07452257722616196 0.039155274629592896 0.162730872631073 113 75 58 0 1 0
0.07533393800258636 0.03905540332198143 0.16306912899017334 116 78 61 0 1 0
0.07615679502487183 0.03894117474555969 0.16335588693618774 120 82 63 0 1 0
0.07700100541114807 0.03880007565021515 0.1635461300611496 120 82 64 0 1 0
0.07778892666101456 0.038723208010196686 0.16396212577819824 122 84 67 0 1 0
0.07857556641101837 0.03864765912294388 0.16438262164592743 116 78 61 0 1 0
0.07937420904636383 0.03855688497424126 0.16474829614162445 117 79 62 0 1 0
0.08017757534980774 0.03845909237861633 0.1650879830121994 120 82 65 0 1 0
0.080974280834198 0.038368720561265945 0.16545359790325165 114 78 60 0 1 0
0.08176395297050476 0.03828686103224754 0.16584953665733337 113 75 58 0 1 0
0.08251399546861649 0.038259319961071014 0.16644397377967834 118 80 62 0 1 0
0.08327241241931915 0.03822225332260132 0.16700492799282074 118 80 62 0 1 0
0.08403875678777695 0.038175515830516815 0.16753137111663818 120 82 64 0 1 0
0.08480580151081085 0.038129132241010666 0.1680600494146347 116 78 61 0 1 0
0.08557282388210297 0.03808429464697838 0.16859540343284607 113 75 58 0 1 0
0.08633369207382202 0.03805093467235565 0.16917482018470764 113 77 59 0 1 0
0.08709801733493805 0.03801433742046356 0.16974346339702606 115 78 60 0 1 0
0.0878724753856659 0.037962786853313446 0.17025671899318695 111 75 57 0 1 0
0.08865770697593689 0.03789360076189041 0.17070351541042328 111 76 58 0 1 0
0.08944810181856155 0.037815142422914505 0.1711149364709854 121 84 66 0 1 0
0.0902392566204071 0.03773471713066101 0.17151851952075958 116 81 63 0 1 0
0.09102090448141098 0.037672340869903564 0.17199155688285828 114 79 61 0 1 0
0.09181348979473114 0.03758827596902847 0.17238067090511322 118 83 65 0 1 0
0.09259651601314545 0.03752358630299568 0.17284496128559113 117 81 63 0 1 0
0.09338586032390594 0.03744538500905037 0.17325647175312042 117 81 61 0 1 0
0.09417130053043365 0.03737571835517883 0.17370140552520752 116 81 61 0 1 0
0.09494762867689133 0.037328675389289856 0.174235999584198 118 82 64 0 1 0
0.09574394673109055 0.03723238408565521 0.17457552254199982 106 70 52 0 1 0
0.09653313457965851 0.03715283051133156 0.174981027841568 118 82 64 0 1 0
0.09733647108078003 0.037031300365924835 0.17521744966506958 116 80 62 0 1 0
0.09811639785766602 0.036975618451833725 0.17571796476840973 115 79 61 0 1 0
0.09890427440404892 0.03689590096473694 0.17612148821353912 117 81 63 0 1 0
0.09969290345907211 0.03681229054927826 0.176508828997612 108 72 54 0 1 0
0.10047348588705063 0.03675749897956848 0.17701378464698792 111 75 57 0 1 0
0.10125790536403656 0.0366896353662014 0.17746560275554657 114 78 60 0 1 0
0.10203628987073898 0.03664996474981308 0.178034245967865 109 73 55 0 1 0
0.10281931608915329 0.036593686789274216 0.1785351037979126 109 72 56 0 1 0
0.1036066934466362 0.03651643544435501 0.17894889414310455 107 71 59 0 1 0
0.10439205169677734 0.036450669169425964 0.1794106811285019 94 64 54 0 1 0
0.10518389195203781 0.03633855655789375 0.17967714369297028 57 39 32 0 1 0
0.10594642162322998 0.03646978735923767 0.18097393214702606 43 27 21 0 1 0
0.10671372711658478 0.036644093692302704 0.18246252834796906 50 40 35 0 1 0
-0.010343290865421295 0.04693649336695671 0.11448396742343903 82 80 74 0 1 0
-0.008830666542053223 0.04657933861017227 0.1143789142370224 27 22 14 0 1 0
-0.007299534976482391 0.046212028712034225 0.11424761265516281 24 18 11 0 1 0
-0.005782820284366608 0.045847393572330475 0.1141141876578331 34 23 16 0 1 0
-0.00442158430814743 0.04554147273302078 0.11408642679452896 49 32 27 0 1 0
-0.0034085363149642944 0.04537203907966614 0.11431697756052017 61 37 30 0 1 0
-0.002657368779182434 0.04530660808086395 0.11474758386611938 89 54 45 0 1 0
-0.001911461353302002 0.045243341475725174 0.11518251150846481 110 75 63 0 1 0
-0.0011668428778648376 0.045180656015872955 0.1156187579035759 116 81 64 0 1 0
-0.0004252493381500244 0.0451192706823349 0.11605773866176605 120 83 66 0 1 0
0.0004123672842979431 0.04501863196492195 0.11641852557659149 120 84 66 0 1 0
0.001097656786441803 0.04498039558529854 0.11690392345190048 115 79 61 0 1 0
0.0018592625856399536 0.04491089656949043 0.11732688546180725 117 82 64 0 1 0
0.002563163638114929 0.04486541822552681 0.11779871582984924 108 73 55 0 1 0
0.003108985722064972 0.04488641396164894 0.1184072345495224 117 81 63 0 1 0
0.0037219375371932983 0.044880155473947525 0.11896190047264099 115 79 61 0 1 0
0.004436865448951721 0.044831421226263046 0.11943013221025467 116 81 63 0 1 0
0.005343489348888397 0.044701267033815384 0.11972909420728683 119 84 70 0 1 0
0.006229139864444733 0.0445793941617012 0.12004387378692627 116 79 62 0 1 0
0.006914705038070679 0.04454313591122627 0.12053806334733963 118 82 64 0 1 0
0.007604829967021942 0.0445052869617939 0.12102972716093063 118 82 62 0 1 0
0.008358031511306763 0.044440317898988724 0.12146423757076263 117 83 65 0 1 0
0.009083151817321777 0.044387709349393845 0.12192545086145401 115 80 63 0 1 0
0.009895309805870056 0.04429689794778824 0.12230446934700012 114 79 62 0 1 0
0.010634586215019226 0.04423818737268448 0.12275278568267822 114 80 62 0 1 0
0.011297658085823059 0.044213660061359406 0.12327619642019272 115 81 62 0 1 0
0.01202729344367981 0.04415975511074066 0.12373610585927963 123 89 71 0 1 0
0.012727499008178711 0.04411936551332474 0.12422636151313782 116 81 65 0 1 0
0.013504661619663239 0.04404431954026222 0.12464014440774918 112 77 61 0 1 0
0.014254167675971985 0.04398186504840851 0.12508204579353333 112 77 62 0 1 0
0.014948546886444092 0.04394492506980896 0.12558165192604065 120 85 71 0 1 0
0.015750348567962646 0.04385855793952942 0.1259700208902359 123 88 72 0 1 0
0.016547411680221558 0.04377419501543045 0.12636248767375946 117 80 65 0 1 0
0.01736016571521759 0.043682243674993515 0.12673719227313995 117 82 65 0 1 0
0.018185049295425415 0.04358426481485367 0.12709733843803406 120 87 69 0 1 0
0.018854476511478424 0.043559979647397995 0.12762784957885742 117 83 65 0 1 0
0.0195174440741539 0.04353940486907959 0.1281682699918747 112 78 60 0 1 0
0.02026084065437317 0.04348066449165344 0.12862034142017365 116 81 63 0 1 0
0.02100110799074173 0.043423593044281006 0.12907665967941284 114 78 60 0 1 0
0.02178536355495453 0.043345145881175995 0.12948253750801086 122 86 68 0 1 0
0.0225108340382576 0.043295588344335556 0.12995721399784088 125 90 72 0 1 0
0.02319321781396866 0.04326773062348366 0.13048461079597473 126 90 72 0 1 0
0.02393326908349991 0.04321161285042763 0.13094483315944672 124 88 70 0 1 0
0.024633154273033142 0.04317595064640045 0.131455197930336 118 82 64 0 1 0
0.025420770049095154 0.04309622570872307 0.13185875117778778 126 90 72 0 1 0
0.026238739490509033 0.04300082102417946 0.1322234570980072 122 86 66 0 1 0
0.027013041079044342 0.04292755201458931 0.1326422095298767 119 85 65 0 1 0
0.027796179056167603 0.04284963384270668 0.13304929435253143 129 92 74 0 1 0
0.02855183184146881 0.04278598725795746 0.13349184393882751 125 88 71 0 1 0
0.029331736266613007 0.042709629982709885 0.13390260934829712 126 90 72 0 1 0
0.030156999826431274 0.042609043419361115 0.1342518925666809 120 84 66 0 1 0
0.030901312828063965 0.042551375925540924 0.13470949232578278 125 88 71 0 1 0
0.03169304132461548 0.04246826097369194 0.13510233163833618 123 89 69 0 1 0
0.03248246759176254 0.042386192828416824 0.13549748063087463 115 81 61 0 1 0
0.03322511911392212 0.04232962802052498 0.1359582394361496 120 84 66 0 1 0
0.03398489952087402 0.04226379096508026 0.13639526069164276 120 84 66 0 1 0
0.034705258905887604 0.04222005605697632 0.1368902176618576 126 90 72 0 1 0
0.03540285676717758 0.04218960180878639 0.1374208629131317 121 87 68 0 1 0
0.03614068031311035 0.04213695228099823 0.137893944978714 118 81 63 0 1 0
0.03685939311981201 0.04209557920694351 0.13839751482009888 121 85 67 0 1 0
0.03758279234170914 0.042052000761032104 0.13889603316783905 125 89 71 0 1 0
0.038355931639671326 0.04197985306382179 0.13931849598884583 125 89 71 0 1 0
0.03910386562347412 0.04192250967025757 0.1397809386253357 119 82 64 0 1 0
0.0398983359336853 0.041837722063064575 0.140169158577919 122 86 68 0 1 0
0.04071524739265442 0.04173918068408966 0.14051933586597443 126 90 73 0 1 0
0.04149043560028076 0.04166539013385773 0.1409366875886917 132 96 78 0 1 0
0.04226485639810562 0.04159199446439743 0.1413550078868866 126 90 69 0 1 0
0.04305662214756012 0.04150781035423279 0.1417432576417923 129 91 72 0 1 0
0.04381847381591797 0.04144201800227165 0.14218245446681976 128 90 71 0 1 0
0.04459226876497269 0.04136877879500389 0.14260084927082062 122 84 65 0 1 0
0.0453687384724617 0.04129376262426376 0.14301414787769318 113 75 58 0 1 0
0.04607269912958145 0.04126530513167381 0.14355941116809845 120 84 66 0 1 0
0.04678138345479965 0.04123463109135628 0.1440996378660202 120 84 66 0 1 0
0.04747846722602844 0.04121242091059685 0.14466533064842224 118 82 65 0 1 0
0.048186782747507095 0.041183777153491974 0.14521393179893494 114 78 60 0 1 0
0.04892200604081154 0.041137970983982086 0.14571405947208405 119 81 62 0 1 0
0.04965762421488762 0.04109243303537369 0.14621573686599731 118 80 61 0 1 0
0.050388436764478683 0.041050758212804794 0.1467294692993164 120 82 61 0 1 0
0.05108780413866043 0.041031550616025925 0.1473103016614914 125 89 69 0 1 0
0.05180790275335312 0.040998976677656174 0.14785313606262207 117 82 64 0 1 0
0.05256293714046478 0.040942467749118805 0.14832590520381927 119 83 65 0 1 0
0.053335364907979965 0.04087378829717636 0.14876268804073334 114 77 59 0 1 0
0.054118044674396515 0.040797699242830276 0.1491772085428238 115 80 63 0 1 0
0.05490091070532799 0.04072132334113121 0.14959071576595306 118 79 65 0 1 0
0.055745117366313934 0.040599074214696884 0.1498645395040512 125 85 67 0 1 0
0.056511715054512024 0.040534112602472305 0.15031181275844574 114 75 56 0 1 0
0.05722720921039581 0.04050837829709053 0.15087978541851044 110 72 53 0 1 0
0.05801700800657272 0.040426235646009445 0.15127497911453247 116 78 59 0 1 0
0.05878714472055435 0.04035922512412071 0.15171676874160767 113 75 56 0 1 0
0.0595291443169117 0.040314700454473495 0.15222884714603424 113 75 58 0 1 0
0.060279157012701035 0.040264423936605453 0.15272372961044312 111 73 56 0 1 0
0.06103505194187164 0.040209900587797165 0.15320588648319244 114 76 60 0 1 0
0.06178785860538483 0.040158405900001526 0.1536981463432312 120 82 64 0 1 0
0.06254389882087708 0.04010474309325218 0.15418414771556854 119 81 63 0 1 0
0.06326921284198761 0.04007783532142639 0.1547563672065735 115 77 60 0 1 0
0.06398600339889526 0.040059637278318405 0.15535807609558105 112 74 57 0 1 0
0.06473573297262192 0.04001404717564583 0.1558729112148285 115 77 60 0 1 0
0.06551140546798706 0.039946045726537704 0.1563156694173813 116 78 61 0 1 0
0.0663311704993248 0.03983805701136589 0.1566278487443924 119 81 62 0 1 0
0.06710235029459 0.039773739874362946 0.1570822298526764 122 84 65 0 1 0
0.06785747408866882 0.03972471132874489 0.15758734941482544 118 80 61 0 1 0
0.06859149783849716 0.039696574211120605 0.15816253423690796 123 85 67 0 1 0
0.06928890198469162 0.039705485105514526 0.15886278450489044 117 80 63 0 1 0
0.07005912065505981 0.0396452397108078 0.15933382511138916 116 79 62 0 1 0
0.0708417296409607 0.03957291692495346 0.15976454317569733 115 78 61 0 1 0
0.07160544395446777 0.03951990604400635 0.1602606475353241 117 81 63 0 1 0
0.07235394418239594 0.039483487606048584 0.1608138382434845 116 80 62 0 1 0
0.07311078906059265 0.03943951427936554 0.16134241223335266 120 83 65 0 1 0
0.07391148060560226 0.039349012076854706 0.1617118865251541 117 79 62 0 1 0
0.07475064694881439 0.03921511396765709 0.16193066537380219 111 73 56 0 1 0
0.07554866373538971 0.03912513330578804 0.16229985654354095 120 82 65 0 1 0
0.07632920145988464 0.03905453160405159 0.16273605823516846 117 79 60 0 1 0
0.07712717354297638 0.03896339237689972 0.16310016810894012 120 82 63 0 1 0
0.07792402803897858 0.03887269273400307 0.16346515715122223 121 83 66 0 1 0
0.07874087989330292 0.03875640779733658 0.16373875737190247 125 87 70 0 1 0
0.07953090220689774 0.03867186978459358 0.16412383317947388 119 81 64 0 1 0
0.08031674474477768 0.03859208896756172 0.16452543437480927 118 80 63 0 1 0
