ply
format ascii 1.0
element vertex 625
property float x
property float y
property float z
property uchar red
property uchar green
property uchar blue
property float nx
property float ny
property float nz
end_header
0.03339991718530655 0.043208952993154526 0.14545661211013794 101 66 53 0 1 0
0.03427678346633911 0.0431833490729332 0.14537450671195984 103 67 57 0 1 0
0.03516596928238869 0.043174128979444504 0.14534752070903778 101 65 56 0 1 0
0.03604833036661148 0.04315714165568352 0.1452943980693817 100 65 51 0 1 0
0.03691086545586586 0.04311777278780937 0.14516592025756836 98 63 50 0 1 0
0.03776958957314491 0.04307587444782257 0.14502893388271332 104 69 56 0 1 0
0.0386207289993763 0.04302741959691048 0.1448698490858078 104 70 57 0 1 0
0.03948555141687393 0.042996011674404144 0.14476816356182098 105 70 57 0 1 0
0.040348585695028305 0.042964041233062744 0.14466455578804016 103 69 56 0 1 0
0.041224174201488495 0.04294649884104729 0.14460954070091248 103 68 55 0 1 0
0.0420980341732502 0.04292788729071617 0.14455090463161469 107 72 59 0 1 0
0.04296692833304405 0.0429050475358963 0.14447803795337677 104 71 58 0 1 0
0.04386649280786514 0.04291309788823128 0.1445091962814331 106 71 58 0 1 0
0.04476180672645569 0.04291671887040138 0.1445254385471344 105 70 57 0 1 0
0.04564744234085083 0.04291106387972832 0.1445104330778122 105 70 57 0 1 0
0.04655781388282776 0.042928390204906464 0.14457283914089203 106 71 57 0 1 0
0.047447189688682556 0.04292602464556694 0.14456893503665924 104 69 56 0 1 0
0.048331521451473236 0.04291923716664314 0.1445501148700714 101 66 53 0 1 0
0.049248989671468735 0.042941559106111526 0.1446293294429779 100 66 52 0 1 0
0.050151243805885315 0.04295001178979874 0.14466185867786407 100 65 52 0 1 0
0.05105404928326607 0.04295859485864639 0.14469482004642487 100 65 52 0 1 0
0.05192713066935539 0.04294228181242943 0.14464393258094788 100 65 52 0 1 0
0.052813634276390076 0.04293739050626755 0.144631490111351 100 65 52 0 1 0
0.05369900166988373 0.04293171688914299 0.14461643993854523 99 64 51 0 1 0
0.05458517372608185 0.04292683303356171 0.14460402727127075 100 65 52 0 1 0
0.0554339736700058 0.04289315268397331 0.14449463784694672 97 65 51 0 1 0
0.05626143515110016 0.0428442656993866 0.14433397352695465 100 66 53 0 1 0
0.05709879845380783 0.0428042970597744 0.14420334994792938 100 65 52 0 1 0
0.05793476104736328 0.04276448115706444 0.1440732628107071 99 64 51 0 1 0
0.05880918726325035 0.042753808200359344 0.14404132962226868 101 66 53 0 1 0
0.05968910828232765 0.04274734482169151 0.1440236121416092 100 66 53 0 1 0
0.060574721544981 0.04274507611989975 0.1440199911594391 98 64 50 0 1 0
0.06145167723298073 0.04273681342601776 0.1439961940050125 100 68 54 0 1 0
0.06233128160238266 0.042730577290058136 0.14397920668125153 89 60 49 0 1 0
0.06329013407230377 0.042778048664331436 0.14414319396018982 67 46 38 0 1 0
0.06443288922309875 0.04294676333665848 0.14471574127674103 33 21 16 0 1 0
0.06570955365896225 0.043198857456445694 0.14556929469108582 24 14 10 0 1 0
0.0670165866613388 0.04346383735537529 0.14646631479263306 41 28 24 0 1 0
0.06832875311374664 0.04372500628232956 0.14735054969787598 67 56 53 0 1 0
0.06991773098707199 0.04415410757064819 0.14880074560642242 69 60 56 0 1 0
-0.07478930056095123 0.04489670693874359 0.14960671961307526 70 59 57 0 1 0
-0.07345210760831833 0.044643618166446686 0.14876750111579895 56 42 37 0 1 0
-0.07227765768766403 0.04448433965444565 0.1482408493757248 65 44 37 0 1 0
-0.07109925150871277 0.0443185493350029 0.14769247174263 85 57 47 0 1 0
-0.07008203864097595 0.04425026848912239 0.14746901392936707 95 65 53 0 1 0
-0.06917231529951096 0.044248975813388824 0.14746880531311035 95 62 52 0 1 0
-0.06827419251203537 0.04425521194934845 0.14749367535114288 100 65 53 0 1 0
-0.06732336431741714 0.0442270003259182 0.147403746843338 98 62 50 0 1 0
-0.06639635562896729 0.04421391710639 0.14736422896385193 100 65 52 0 1 0
-0.06544818729162216 0.04418620839715004 0.14727598428726196 99 65 54 0 1 0
-0.06453079730272293 0.04417882487177849 0.14725546538829803 97 65 53 0 1 0
-0.06360214203596115 0.04416343942284584 0.14720827341079712 96 63 52 0 1 0
-0.06270615011453629 0.044170644134283066 0.14723637700080872 98 65 54 0 1 0
-0.06182708218693733 0.044190190732479095 0.14730562269687653 102 64 54 0 1 0
-0.06096367537975311 0.044221699237823486 0.14741475880146027 99 64 54 0 1 0
-0.06008467823266983 0.04424271732568741 0.14748892188072205 101 66 53 0 1 0
-0.059198904782533646 0.044259343296289444 0.14754845201969147 96 61 47 0 1 0
-0.05828572437167168 0.04425571858882904 0.14754045009613037 101 66 53 0 1 0
-0.05737810581922531 0.0442562997341156 0.14754647016525269 100 63 50 0 1 0
-0.05647696554660797 0.04426199570298195 0.14756958186626434 100 64 51 0 1 0
-0.05558484047651291 0.04427510127425194 0.147617369890213 95 58 45 0 1 0
-0.05469740927219391 0.04429247975349426 0.1476794183254242 89 53 40 0 1 0
-0.05381954461336136 0.04431835189461708 0.1477697789669037 97 60 47 0 1 0
-0.05292418599128723 0.044330500066280365 0.14781439304351807 99 62 49 0 1 0
-0.052030663937330246 0.04434466361999512 0.14786574244499207 99 62 48 0 1 0
-0.051141250878572464 0.04436294361948967 0.1479308158159256 98 61 46 0 1 0
-0.0502597838640213 0.044388946145772934 0.1480216234922409 94 57 44 0 1 0
-0.049389079213142395 0.044425614178180695 0.14814801514148712 90 53 38 0 1 0
-0.048503246158361435 0.04444984346628189 0.14823293685913086 97 60 45 0 1 0
-0.04763040319085121 0.044487178325653076 0.14836154878139496 94 57 42 0 1 0
-0.0467345230281353 0.044504065066576004 0.1484220027923584 96 59 44 0 1 0
-0.04583975300192833 0.04452275484800339 0.14848844707012177 101 64 48 0 1 0
-0.04493621736764908 0.04453355073928833 0.1485285758972168 97 60 44 0 1 0
-0.044025227427482605 0.04453730210661888 0.14854522049427032 102 65 52 0 1 0
-0.043117254972457886 0.04454437270760536 0.14857293665409088 97 62 49 0 1 0
-0.04221072047948837 0.04455331712961197 0.14860689640045166 90 55 42 0 1 0
-0.04129785671830177 0.044555872678756714 0.14861954748630524 95 59 46 0 1 0
-0.040377382189035416 0.044550180435180664 0.14860469102859497 98 61 48 0 1 0
-0.03946841135621071 0.04455726966261864 0.1486324667930603 94 57 44 0 1 0
-0.038563866168260574 0.04456986114382744 0.14867861568927765 92 58 45 0 1 0
-0.03766167163848877 0.04458589106798172 0.14873622357845306 94 58 45 0 1 0
-0.03673343360424042 0.044571176171302795 0.14869126677513123 94 59 46 0 1 0
-0.03581096604466438 0.044562943279743195 0.14866793155670166 97 62 49 0 1 0
-0.034882985055446625 0.04454728215932846 0.14861981570720673 98 63 50 0 1 0
-0.033955659717321396 0.044531695544719696 0.1485719382762909 98 62 49 0 1 0
-0.03303593024611473 0.044525545090436935 0.14855553209781647 103 68 55 0 1 0
-0.032106444239616394 0.04450557380914688 0.14849305152893066 101 66 53 0 1 0
-0.031177490949630737 0.04448525235056877 0.14842936396598816 100 65 52 0 1 0
-0.030261225998401642 0.04448241740465164 0.14842402935028076 100 65 52 0 1 0
-0.029346367344260216 0.04448159784078598 0.14842543005943298 102 67 54 0 1 0
-0.028430018573999405 0.044478464871644974 0.1484190970659256 99 63 50 0 1 0
-0.02751787379384041 0.04448198154568672 0.14843495190143585 97 62 49 0 1 0
-0.02660442516207695 0.04448363557457924 0.14844459295272827 100 65 52 0 1 0
-0.025688940659165382 0.044481951743364334 0.1484431028366089 103 66 53 0 1 0
-0.024787724018096924 0.044505830854177475 0.14852693676948547 98 61 48 0 1 0
-0.02388160303235054 0.0445224791765213 0.14858663082122803 103 65 52 0 1 0
-0.022974137216806412 0.04453794285655022 0.14864234626293182 105 68 55 0 1 0
-0.022061234340071678 0.044543780386447906 0.14866597950458527 100 64 50 0 1 0
-0.02113947458565235 0.04453156515955925 0.1486293226480484 100 65 52 0 1 0
-0.020219065248966217 0.04452129825949669 0.14859920740127563 97 62 49 0 1 0
-0.019303403794765472 0.044521115720272064 0.14860272407531738 95 60 45 0 1 0
-0.018384527415037155 0.04451322928071022 0.14858053624629974 98 63 48 0 1 0
-0.017458250746130943 0.04448576271533966 0.1484929919242859 100 66 51 0 1 0
-0.016531027853488922 0.04445283114910126 0.14838719367980957 101 66 50 0 1 0
-0.015605374239385128 0.04442063346505165 0.14828382432460785 102 67 52 0 1 0
-0.014681007713079453 0.04438844695687294 0.1481804996728897 99 65 50 0 1 0
-0.01375935785472393 0.04436087980866432 0.1480925977230072 96 64 48 0 1 0
-0.012838175520300865 0.04433116316795349 0.14799749851226807 95 62 47 0 1 0
-0.01191544160246849 0.044291287660598755 0.14786849915981293 98 63 49 0 1 0
-0.010994906537234783 0.04425382241606712 0.14774753153324127 94 59 46 0 1 0
-0.01007837150245905 0.04422733932733536 0.1476632058620453 99 64 51 0 1 0
-0.00916374009102583 0.044204968959093094 0.14759263396263123 98 63 50 0 1 0
-0.008249914273619652 0.04418221861124039 0.1475207656621933 100 65 52 0 1 0
-0.0073364186100661755 0.04415607452392578 0.14743757247924805 95 62 48 0 1 0
-0.006424973718822002 0.044136907905340195 0.14737768471240997 96 62 49 0 1 0
-0.005516454111784697 0.04413516819477081 0.14737597107887268 93 58 45 0 1 0
-0.004608312621712685 0.044136762619018555 0.1473853886127472 96 63 50 0 1 0
-0.00370013271458447 0.044139184057712555 0.14739756286144257 93 61 47 0 1 0
-0.002790984697639942 0.044128529727458954 0.14736609160900116 91 59 45 0 1 0
-0.001881578122265637 0.044102512300014496 0.14728331565856934 96 61 48 0 1 0
-0.000973195827100426 0.04407627508044243 0.14719979465007782 93 58 45 0 1 0
-6.586967356270179e-05 0.04406193643808365 0.1471559852361679 97 62 49 0 1 0
0.0008409481379203498 0.0440497100353241 0.14711925387382507 103 68 55 0 1 0
0.001747258473187685 0.04403632506728172 0.14707864820957184 102 67 54 0 1 0
0.0026529752649366856 0.04402155056595802 0.14703337848186493 102 67 54 0 1 0
0.003557549323886633 0.043999653309583664 0.14696432650089264 96 60 48 0 1 0
0.00446133129298687 0.04397842288017273 0.14689749479293823 96 64 50 0 1 0
0.005364289041608572 0.043957266956567764 0.14683090150356293 95 64 49 0 1 0
0.006266235373914242 0.04393482208251953 0.14676004648208618 99 63 53 0 1 0
0.007165808230638504 0.04390325769782066 0.14665865898132324 99 64 53 0 1 0
0.008063359186053276 0.04386753588914871 0.14654341340065002 100 64 54 0 1 0
0.008961012586951256 0.04383929818868637 0.14645317196846008 105 69 58 0 1 0
0.009858578443527222 0.04381566494703293 0.146378293633461 103 67 57 0 1 0
0.010757334530353546 0.043800681829452515 0.14633230865001678 103 67 55 0 1 0
0.011653680354356766 0.04377879574894905 0.1462632566690445 103 67 56 0 1 0
0.012548758648335934 0.04375549405813217 0.14618946611881256 98 62 50 0 1 0
0.01344265416264534 0.04373132437467575 0.14611278474330902 97 62 49 0 1 0
0.014335128478705883 0.04370574280619621 0.14603137969970703 101 66 53 0 1 0
0.01522875390946865 0.043686363846063614 0.1459706872701645 103 68 55 0 1 0
0.01612059585750103 0.043664202094078064 0.1459006816148758 102 67 54 0 1 0
0.01701080985367298 0.043640103191137314 0.14582422375679016 104 69 56 0 1 0
0.01789741776883602 0.04360952973365784 0.14572612941265106 99 64 51 0 1 0
0.018788335844874382 0.04359179362654686 0.14567090570926666 102 67 54 0 1 0
0.019683191552758217 0.04358430206775665 0.14564992487430573 103 68 55 0 1 0
0.020579036325216293 0.04357947036623955 0.14563782513141632 99 64 51 0 1 0
0.021468358114361763 0.04356171935796738 0.14558257162570953 101 66 53 0 1 0
0.022359713912010193 0.043549273163080215 0.14554502069950104 102 67 54 0 1 0
0.023248892277479172 0.04353363811969757 0.14549681544303894 104 69 56 0 1 0
0.024137426167726517 0.04351792484521866 0.14544834196567535 105 70 57 0 1 0
0.025028279051184654 0.043507304042577744 0.14541688561439514 106 71 58 0 1 0
0.025910882279276848 0.043483491986989975 0.14534135162830353 105 71 57 0 1 0
0.026790527626872063 0.04345642030239105 0.14525489509105682 106 71 58 0 1 0
0.02767321653664112 0.043435800820589066 0.14519003033638 103 68 56 0 1 0
0.02855345420539379 0.043412696570158005 0.14511683583259583 104 70 56 0 1 0
0.029435185715556145 0.043393127620220184 0.14505545794963837 104 69 56 0 1 0
0.030319180339574814 0.04337790235877037 0.14500859379768372 107 70 61 0 1 0
0.031193075701594353 0.04334944859147072 0.14491750299930573 100 67 53 0 1 0
0.032068803906440735 0.04332500323653221 0.1448398232460022 98 65 51 0 1 0
0.03294281288981438 0.043299563229084015 0.14475880563259125 96 64 50 0 1 0
0.03381466865539551 0.043272677809000015 0.1446729451417923 100 65 54 0 1 0
0.03469378128647804 0.04325615242123604 0.14462171494960785 102 69 56 0 1 0
0.03557611256837845 0.043244317173957825 0.14458619058132172 102 66 54 0 1 0
0.036436647176742554 0.04320717230439186 0.14446601271629333 100 65 52 0 1 0
0.03729565441608429 0.04316999390721321 0.1443457007408142 100 65 52 0 1 0
0.03813954442739487 0.04311739280819893 0.14417386054992676 102 67 54 0 1 0
0.0390029102563858 0.04308867081999779 0.14408183097839355 106 70 58 0 1 0
0.039869096130132675 0.043064236640930176 0.14400412142276764 105 69 57 0 1 0
0.04073168709874153 0.043037015944719315 0.14391711354255676 103 68 55 0 1 0
0.04159519448876381 0.0430118665099144 0.14383700489997864 101 66 53 0 1 0
0.042462944984436035 0.04299201816320419 0.14377464354038239 104 71 57 0 1 0
0.043346110731363297 0.042988233268260956 0.14376597106456757 106 70 57 0 1 0
0.044239532202482224 0.04299452528357506 0.14379103481769562 108 73 60 0 1 0
0.04511860013008118 0.042986854910850525 0.14376938343048096 105 70 56 0 1 0
0.0460052564740181 0.042986538261175156 0.14377233386039734 105 70 56 0 1 0
0.046890415251255035 0.042984817177057266 0.14377056062221527 106 71 58 0 1 0
0.0477672778069973 0.042975667864084244 0.14374396204948425 104 69 56 0 1 0
0.04866791516542435 0.04298780858516693 0.14378857612609863 103 68 55 0 1 0
0.04957377910614014 0.04300401359796524 0.143846794962883 102 67 54 0 1 0
0.05048028752207756 0.04302016273140907 0.14390482008457184 103 68 55 0 1 0
0.05136275291442871 0.043015580624341965 0.14389349520206451 98 63 50 0 1 0
0.052249278873205185 0.043014466762542725 0.1438937783241272 97 62 49 0 1 0
0.05313009396195412 0.04300874471664429 0.14387863874435425 99 64 51 0 1 0
0.0540204793214798 0.043010786175727844 0.14388947188854218 100 65 52 0 1 0
0.05487094447016716 0.042981456965208054 0.14379537105560303 101 67 53 0 1 0
0.05570473149418831 0.042940180748701096 0.1436612606048584 101 66 53 0 1 0
0.056529317051172256 0.0428931787610054 0.14350801706314087 100 65 52 0 1 0
0.05738960579037666 0.042874280363321304 0.14344877004623413 99 64 51 0 1 0
0.058256734162569046 0.04286094382405281 0.1434081643819809 97 62 49 0 1 0
0.05914485827088356 0.04286320507526398 0.14341969788074493 99 64 51 0 1 0
0.06004464626312256 0.04287368804216385 0.1434587836265564 100 67 54 0 1 0
0.060907475650310516 0.04285783693194389 0.14340974390506744 96 64 54 0 1 0
0.06181234121322632 0.042871568351984024 0.14345967769622803 79 54 44 0 1 0
0.06273724883794785 0.04289858415722847 0.14355409145355225 48 32 25 0 1 0
0.06387443840503693 0.04306795075535774 0.1441248506307602 28 18 13 0 1 0
0.06518927216529846 0.04335078224539757 0.14507538080215454 30 21 17 0 1 0
0.06654521822929382 0.04365288466215134 0.14609044790267944 49 39 36 0 1 0
0.06793627142906189 0.043969616293907166 0.1471545249223709 65 54 51 0 1 0
-0.07538069784641266 0.04537563398480415 0.15017224848270416 74 64 63 0 1 0
-0.07374583184719086 0.044942598789930344 0.14874319732189178 68 56 55 0 1 0
-0.0724104717373848 0.04468351602554321 0.14788980782032013 55 41 36 0 1 0
-0.07120869308710098 0.044501349329948425 0.14729094505310059 65 41 33 0 1 0
-0.07009381800889969 0.04436950758099556 0.14685866236686707 89 62 51 0 1 0
-0.06916501373052597 0.044353585690259933 0.14680999517440796 94 62 54 0 1 0
-0.06829704344272614 0.04437679052352905 0.14689084887504578 102 67 54 0 1 0
-0.06733390688896179 0.04433797672390938 0.14676645398139954 97 62 49 0 1 0
-0.06641575694084167 0.04432814568281174 0.1467379629611969 102 67 54 0 1 0
-0.06543091684579849 0.04427296295762062 0.14655934274196625 99 64 51 0 1 0
-0.06451885402202606 0.04426620528101921 0.14654099941253662 99 65 55 0 1 0
-0.06358704715967178 0.04424552991986275 0.1464766263961792 97 64 54 0 1 0
-0.06268183887004852 0.04424307495355606 0.1464725285768509 99 63 53 0 1 0
-0.06177106872200966 0.04423659294843674 0.14645510911941528 100 62 53 0 1 0
-0.060907941311597824 0.044264573603868484 0.14655180275440216 99 66 54 0 1 0
-0.06003648787736893 0.04428727924823761 0.14663101732730865 99 66 55 0 1 0
-0.05916290357708931 0.0443091094493866 0.14670735597610474 101 66 51 0 1 0
-0.05828751623630524 0.044330283999443054 0.14678151905536652 97 61 48 0 1 0
-0.05736031383275986 0.04431212320923805 0.14672546088695526 101 65 52 0 1 0
-0.056456275284290314 0.04431160166859627 0.1467277705669403 100 63 50 0 1 0
-0.055570729076862335 0.044325847178697586 0.14677898585796356 99 62 49 0 1 0
-0.054695162922143936 0.04434868320822716 0.14685866236686707 90 53 40 0 1 0
-0.05383146181702614 0.04438210651278496 0.1469734013080597 96 56 45 0 1 0
-0.052939508110284805 0.044393014162778854 0.1470135897397995 89 54 40 0 1 0
-0.05205119401216507 0.0444074347615242 0.1470654159784317 100 62 47 0 1 0
-0.05115154758095741 0.04441257193684578 0.1470864862203598 100 63 50 0 1 0
-0.05028761923313141 0.04444950446486473 0.14721286296844482 95 58 45 0 1 0
-0.049426451325416565 0.04449031129479408 0.14735208451747894 91 54 40 0 1 0
-0.048558831214904785 0.044526759535074234 0.14747688174247742 92 55 40 0 1 0
-0.04767880588769913 0.04455305263400078 0.14756803214550018 99 62 47 0 1 0
-0.046784333884716034 0.04456663876771927 0.1476171314716339 99 62 47 0 1 0
-0.04590095579624176 0.04459158331155777 0.14770382642745972 100 63 48 0 1 0
-0.04500545188784599 0.0446055643260479 0.1477542221546173 99 62 47 0 1 0
-0.04410897195339203 0.04461916908621788 0.14780336618423462 101 64 51 0 1 0
-0.04319875314831734 0.044619206339120865 0.14780756831169128 100 63 50 0 1 0
-0.0422963909804821 0.04462757334113121 0.14783938229084015 91 55 42 0 1 0
-0.04139133542776108 0.04463345184922218 0.14786292612552643 91 56 43 0 1 0
-0.040481191128492355 0.044634025543928146 0.14786893129348755 97 61 48 0 1 0
-0.039575494825839996 0.044639699161052704 0.1478918045759201 98 61 48 0 1 0
-0.038671668618917465 0.044647835195064545 0.1479228436946869 94 58 45 0 1 0
-0.03777776286005974 0.044668152928352356 0.1479942500591278 93 56 43 0 1 0
-0.036855798214673996 0.04465551674365997 0.1479564905166626 90 55 42 0 1 0
-0.035939525812864304 0.044649384915828705 0.1479402333498001 92 57 44 0 1 0
-0.0350196436047554 0.04463836923241615 0.14790783822536469 95 61 48 0 1 0
-0.03409508988261223 0.044620707631111145 0.14785340428352356 97 60 47 0 1 0
-0.03317509591579437 0.044608261436223984 0.1478162407875061 98 62 49 0 1 0
-0.03224935755133629 0.044587232172489166 0.1477506458759308 102 67 54 0 1 0
-0.03132156655192375 0.044562119990587234 0.14767152070999146 102 67 54 0 1 0
-0.03040454536676407 0.04455135017633438 0.1476399004459381 101 66 53 0 1 0
-0.029501495882868767 0.044561076909303665 0.14767621457576752 99 64 51 0 1 0
-0.028587842360138893 0.04455496370792389 0.1476600468158722 104 69 56 0 1 0
-0.02767646685242653 0.04455217719078064 0.14765489101409912 98 62 49 0 1 0
-0.02677076868712902 0.044558729976415634 0.14768069982528687 97 62 49 0 1 0
-0.025860093533992767 0.04455723240971565 0.14767982065677643 102 66 53 0 1 0
-0.024962231516838074 0.044578589498996735 0.14775466918945312 102 65 52 0 1 0
-0.02406258136034012 0.04459831863641739 0.14782416820526123 100 64 51 0 1 0
-0.02315940521657467 0.04461288824677467 0.1478765308856964 105 68 55 0 1 0
-0.022250136360526085 0.044616516679525375 0.14789265394210815 101 66 52 0 1 0
-0.02133769541978836 0.04461391642689705 0.14788812398910522 99 64 48 0 1 0
-0.02042280323803425 0.04460581764578819 0.14786535501480103 95 60 47 0 1 0
-0.019508231431245804 0.04459778964519501 0.14784282445907593 94 59 45 0 1 0
-0.01859538070857525 0.044593196362257004 0.14783169329166412 97 63 49 0 1 0
-0.017674025148153305 0.044566795229911804 0.14774826169013977 99 65 50 0 1 0
-0.016750046983361244 0.04453067108988762 0.14763256907463074 99 63 49 0 1 0
-0.01583070121705532 0.04450352117419243 0.147546648979187 102 67 52 0 1 0
-0.014912562444806099 0.04447679594159126 0.1474621295928955 100 65 50 0 1 0
-0.01399449072778225 0.04444694519042969 0.14736723899841309 99 67 51 0 1 0
-0.013076789677143097 0.044414352625608444 0.14726324379444122 100 65 50 0 1 0
-0.012158750556409359 0.044375818222761154 0.1471395343542099 91 59 43 0 1 0
-0.011243310756981373 0.044341493397951126 0.1470297873020172 94 59 44 0 1 0
-0.010331098921597004 0.044315166771411896 0.14694654941558838 94 59 46 0 1 0
-0.009420550428330898 0.044291794300079346 0.1468731164932251 99 64 51 0 1 0
-0.008510611951351166 0.044266849756240845 0.14679445326328278 100 65 52 0 1 0
-0.0076008946634829044 0.044237490743398666 0.1467011570930481 101 66 53 0 1 0
-0.006693015340715647 0.04421262443065643 0.14662274718284607 93 60 46 0 1 0
-0.005789307411760092 0.044212158769369125 0.14662526547908783 92 61 47 0 1 0
-0.004886192735284567 0.04421727731823921 0.14664627611637115 93 60 47 0 1 0
-0.003982861060649157 0.04422275349497795 0.14666850864887238 94 62 47 0 1 0
-0.0030782243702560663 0.044213298708200455 0.14664120972156525 94 62 48 0 1 0
-0.002173349726945162 0.04419199004769325 0.14657458662986755 91 58 44 0 1 0
-0.0012690910371020436 0.04416322708129883 0.14648324251174927 93 58 45 0 1 0
-0.00036607185029424727 0.04414709657430649 0.1464337855577469 97 63 49 0 1 0
0.0005363454110920429 0.04413231089711189 0.14638879895210266 99 64 51 0 1 0
0.00143819535151124 0.04411740601062775 0.1463434100151062 101 66 53 0 1 0
0.0023392050061374903 0.04409736767411232 0.14628098905086517 103 68 55 0 1 0
0.0032393657602369785 0.04407637566328049 0.14621539413928986 100 65 52 0 1 0
0.004138993564993143 0.044058408588171005 0.146159827709198 96 61 48 0 1 0
0.005037901923060417 0.044040217995643616 0.14610353112220764 97 64 51 0 1 0
0.005935748107731342 0.044019363820552826 0.14603836834430695 97 65 53 0 1 0
0.006830472033470869 0.04398362338542938 0.14592385292053223 96 63 52 0 1 0
0.007723589427769184 0.04394683614373207 0.14580583572387695 95 60 48 0 1 0
0.008617858402431011 0.043923381716012955 0.14573203027248383 103 68 55 0 1 0
0.00951116718351841 0.04389972612261772 0.14565758407115936 105 70 60 0 1 0
0.010405072011053562 0.04388249292969704 0.1456044316291809 104 70 56 0 1 0
0.011296832002699375 0.043859511613845825 0.14553220570087433 103 68 55 0 1 0
0.012187231332063675 0.0438348762691021 0.1454544961452484 100 64 54 0 1 0
0.01307756919413805 0.04381326586008072 0.14538680016994476 95 60 47 0 1 0
0.01396521832793951 0.04378587380051613 0.14529992640018463 100 65 52 0 1 0
0.01485427562147379 0.04376581311225891 0.14523737132549286 101 66 53 0 1 0
0.015740636736154556 0.04374042898416519 0.14515714347362518 100 65 52 0 1 0
0.01662442833185196 0.04371090978384018 0.14506320655345917 102 67 54 0 1 0
0.01750650815665722 0.04368002712726593 0.14496472477912903 102 67 54 0 1 0
0.018394682556390762 0.04366651922464371 0.14492391049861908 103 68 55 0 1 0
0.0192854180932045 0.04365998134016991 0.1449062079191208 102 67 54 0 1 0
0.020178254693746567 0.043658461421728134 0.1449051797389984 99 64 51 0 1 0
0.021064333617687225 0.04364300146698952 0.14485785365104675 99 64 51 0 1 0
0.02194998785853386 0.043627865612506866 0.14481163024902344 102 67 54 0 1 0
0.02283785678446293 0.043618060648441315 0.1447831094264984 99 64 51 0 1 0
0.02372472919523716 0.043607085943222046 0.1447506844997406 102 67 54 0 1 0
0.024610387161374092 0.04359469190239906 0.14471355080604553 105 70 57 0 1 0
0.02549329400062561 0.043578390032052994 0.14466342329978943 106 71 58 0 1 0
0.02636694721877575 0.04354783892631531 0.14456601440906525 106 71 59 0 1 0
0.02724646031856537 0.04352858290076256 0.14450609683990479 105 70 58 0 1 0
0.028122851625084877 0.043505650013685226 0.14443396031856537 104 68 57 0 1 0
0.028999902307987213 0.04348506033420563 0.14436960220336914 103 67 57 0 1 0
0.029879463836550713 0.04346928745508194 0.14432120323181152 104 68 57 0 1 0
0.03074963390827179 0.043441105633974075 0.1442316472530365 106 70 60 0 1 0
0.031623948365449905 0.04342013970017433 0.1441660225391388 104 70 56 0 1 0
0.032494932413101196 0.04339582100510597 0.14408926665782928 102 70 56 0 1 0
0.03336930647492409 0.043377142399549484 0.14403125643730164 98 65 52 0 1 0
0.03424152359366417 0.04335665702819824 0.14396719634532928 99 66 52 0 1 0
0.0351126492023468 0.04333581402897835 0.1439019739627838 104 69 56 0 1 0
0.035970255732536316 0.04329966753721237 0.14378593862056732 100 65 52 0 1 0
0.03682637959718704 0.043263472616672516 0.1436697095632553 102 67 54 0 1 0
0.0376756526529789 0.04322107881307602 0.1435329020023346 101 66 53 0 1 0
0.038528889417648315 0.043185021728277206 0.1434171348810196 102 70 56 0 1 0
0.03938877210021019 0.04315783083438873 0.14333079755306244 105 70 57 0 1 0
0.04024381935596466 0.04312660172581673 0.14323104918003082 105 70 57 0 1 0
0.04109992831945419 0.043097786605358124 0.1431393176317215 103 68 55 0 1 0
0.04196310043334961 0.04307739809155464 0.14307554066181183 103 71 57 0 1 0
0.042840439826250076 0.04307204484939575 0.14306172728538513 103 70 56 0 1 0
0.04372134432196617 0.04307037591934204 0.14306016266345978 105 70 57 0 1 0
0.04459909349679947 0.043065693229436874 0.14304856956005096 107 72 59 0 1 0
0.04547912999987602 0.04306332394480705 0.14304465055465698 106 71 58 0 1 0
0.04634913057088852 0.043051689863204956 0.1430099457502365 106 71 57 0 1 0
0.047234129160642624 0.043054111301898956 0.14302195608615875 106 71 58 0 1 0
0.04812207818031311 0.043059058487415314 0.14304234087467194 106 71 58 0 1 0
0.04902668669819832 0.04307842254638672 0.14311064779758453 105 70 57 0 1 0
0.049910932779312134 0.04307949170470238 0.14311815798282623 103 68 55 0 1 0
0.05079880729317665 0.043083567172288895 0.143135666847229 99 64 51 0 1 0
0.05168745294213295 0.043088119477033615 0.14315474033355713 98 63 50 0 1 0
0.05257277563214302 0.04308975487947464 0.14316414296627045 97 62 49 0 1 0
0.05345210060477257 0.043086472898721695 0.1431572139263153 99 64 51 0 1 0
0.054310448467731476 0.04306662455201149 0.1430952399969101 101 66 53 0 1 0
0.05516111105680466 0.04304138943552971 0.14301533997058868 100 67 53 0 1 0
0.055982790887355804 0.0429946593940258 0.14286400377750397 100 65 52 0 1 0
0.05684981867671013 0.042983632534742355 0.14283134043216705 99 64 51 0 1 0
0.057713832706213 0.04297066852450371 0.1427922248840332 99 64 51 0 1 0
0.058613892644643784 0.0429845005273819 0.1428421288728714 98 64 51 0 1 0
0.05950027331709862 0.04298800975084305 0.14285774528980255 99 65 53 0 1 0
0.060361526906490326 0.04297350347042084 0.14281348884105682 88 60 50 0 1 0
0.0612860843539238 0.04300380498170853 0.14291813969612122 66 45 37 0 1 0
0.06222982704639435 0.043046485632658005 0.14306394755840302 39 26 19 0 1 0
0.06337643414735794 0.04322630539536476 0.14366556704044342 23 13 9 0 1 0
0.0646815076470375 0.04350772872567177 0.1446049064397812 26 17 13 0 1 0
0.06608469784259796 0.04384657368063927 0.14573512971401215 53 44 40 0 1 0
0.0675986111164093 0.04424876719713211 0.14707599580287933 65 55 51 0 1 0
-0.0749252587556839 0.045594848692417145 0.1498791128396988 69 58 57 0 1 0
-0.07325462996959686 0.04513391852378845 0.1483680158853531 70 57 58 0 1 0
-0.07190932333469391 0.044864341616630554 0.1474858820438385 57 44 39 0 1 0
-0.07061968743801117 0.04462306946516037 0.1466967761516571 57 37 30 0 1 0
-0.0695018395781517 0.04448553919792175 0.14624865353107452 81 56 46 0 1 0
-0.0685659721493721 0.044462427496910095 0.14617668092250824 93 61 50 0 1 0
-0.06766004115343094 0.04445840045809746 0.14616745710372925 99 67 54 0 1 0
-0.06671718508005142 0.04442969337105751 0.14607711136341095 98 62 49 0 1 0
-0.0658024325966835 0.04441920295357704 0.14604662358760834 103 68 55 0 1 0
-0.06480488181114197 0.044351790100336075 0.145828977227211 101 64 51 0 1 0
-0.06389115005731583 0.04434068128466606 0.14579646289348602 99 64 55 0 1 0
-0.06295398622751236 0.044312793761491776 0.14570875465869904 97 63 53 0 1 0
-0.0620555579662323 0.044311780482530594 0.14570944011211395 99 65 52 0 1 0
-0.0611567385494709 0.04431048780679703 0.14570918679237366 99 60 50 0 1 0
-0.060294609516859055 0.04433616250753403 0.14579762518405914 99 66 55 0 1 0
-0.05942026525735855 0.04435352981090546 0.1458587348461151 101 65 54 0 1 0
-0.05854954198002815 0.04437420517206192 0.14593073725700378 101 65 50 0 1 0
-0.057657238095998764 0.044378943741321564 0.1459503322839737 96 61 48 0 1 0
-0.05674103647470474 0.044365182518959045 0.14590908586978912 104 67 54 0 1 0
-0.055852439254522324 0.044372934848070145 0.14593859016895294 102 65 52 0 1 0
-0.05497872456908226 0.04439299926161766 0.14600858092308044 101 64 51 0 1 0
-0.05410825088620186 0.04441642016172409 0.14608962833881378 96 59 46 0 1 0
-0.053243666887283325 0.04444558545947075 0.1461895853281021 94 57 44 0 1 0
-0.05235504359006882 0.04445537179708481 0.14622578024864197 94 58 43 0 1 0
-0.051472295075654984 0.044470611959695816 0.1462799310684204 99 62 49 0 1 0
-0.05059666931629181 0.0444926992058754 0.14635658264160156 96 59 45 0 1 0
-0.04973851516842842 0.044531263411045074 0.14648748934268951 98 61 48 0 1 0
-0.04888487607240677 0.04457540065050125 0.1466367095708847 93 56 41 0 1 0
-0.04801928997039795 0.044610146433115005 0.14675503969192505 96 59 44 0 1 0
-0.04714345932006836 0.0446365624666214 0.1468459814786911 101 64 50 0 1 0
-0.0462600477039814 0.04465673491358757 0.14691637456417084 98 61 46 0 1 0
-0.04537982493638992 0.0446808859705925 0.14699988067150116 99 62 46 0 1 0
-0.044492971152067184 0.04469940438866615 0.14706481993198395 98 61 48 0 1 0
-0.04359811171889305 0.04471052810549736 0.14710547029972076 100 63 50 0 1 0
-0.04269362613558769 0.04471208155155182 0.1471146196126938 100 63 50 0 1 0
-0.041791122406721115 0.044715866446495056 0.14713113009929657 92 57 44 0 1 0
-0.04088950157165527 0.04472082480788231 0.14715148508548737 94 56 43 0 1 0
-0.03997727483510971 0.04471419379115105 0.1471337080001831 95 58 45 0 1 0
-0.03907743841409683 0.044721491634845734 0.14716178178787231 99 62 49 0 1 0
-0.038188207894563675 0.04474160820245743 0.14723199605941772 95 59 48 0 1 0
-0.03728815168142319 0.044749751687049866 0.147262841463089 95 59 46 0 1 0
-0.036371275782585144 0.04473766312003136 0.14722712337970734 95 60 47 0 1 0
-0.03545737639069557 0.04472876712679863 0.14720189571380615 92 57 45 0 1 0
-0.03453841432929039 0.04471290856599808 0.14715373516082764 96 60 47 0 1 0
-0.033621858805418015 0.044699445366859436 0.14711347222328186 99 63 50 0 1 0
-0.03270455077290535 0.04468425735831261 0.14706751704216003 96 60 47 0 1 0
-0.031782567501068115 0.04466169327497482 0.14699731767177582 100 65 52 0 1 0
-0.030860554426908493 0.044637832790613174 0.14692279696464539 102 67 54 0 1 0
-0.02995479106903076 0.044636793434619904 0.14692343771457672 100 65 52 0 1 0
-0.029051490128040314 0.04463954269886017 0.14693652093410492 101 66 53 0 1 0
-0.02814476750791073 0.044637106359004974 0.14693254232406616 102 67 54 0 1 0
-0.027239633724093437 0.044637180864810944 0.1469368189573288 96 58 45 0 1 0
-0.02633693255484104 0.04464145004749298 0.14695490896701813 97 62 49 0 1 0
-0.025429489091038704 0.0446377731859684 0.14694686233997345 101 64 51 0 1 0
-0.024536145851016045 0.0446595624089241 0.14702261984348297 100 65 52 0 1 0
-0.02364187128841877 0.04468134045600891 0.1470983624458313 98 61 48 0 1 0
-0.022741785272955894 0.044693514704704285 0.14714249968528748 102 65 52 0 1 0
-0.021836306899785995 0.04469575360417366 0.14715388417243958 101 66 53 0 1 0
-0.02092725969851017 0.04469063878059387 0.14714111387729645 100 65 52 0 1 0
-0.02001495659351349 0.044677894562482834 0.1471031755208969 98 63 50 0 1 0
-0.019105957821011543 0.04467175900936127 0.14708703756332397 92 57 43 0 1 0
-0.018193969503045082 0.04465777054429054 0.14704503118991852 93 60 48 0 1 0
-0.017277205362915993 0.04463009163737297 0.14695791900157928 95 63 51 0 1 0
-0.016359815374016762 0.04459775984287262 0.14685550332069397 100 66 51 0 1 0
-0.015445110388100147 0.044569507241249084 0.14676649868488312 98 63 49 0 1 0
-0.014531899243593216 0.04454244300723076 0.14668139815330505 98 63 48 0 1 0
-0.013619535602629185 0.04451468214392662 0.14659403264522552 98 64 49 0 1 0
-0.012706158682703972 0.04447958990931511 0.14648248255252838 101 66 51 0 1 0
-0.011793381534516811 0.04444153234362602 0.14636118710041046 91 59 44 0 1 0
-0.01088305376470089 0.04440734535455704 0.1462526023387909 96 61 47 0 1 0
-0.009976028464734554 0.044381845742464066 0.1461726576089859 94 59 46 0 1 0
-0.009070506319403648 0.04435884207487106 0.14610090851783752 98 63 50 0 1 0
-0.008164863102138042 0.044330332428216934 0.14601102471351624 96 61 48 0 1 0
-0.007260341662913561 0.04430186375975609 0.1459212452173233 102 67 54 0 1 0
-0.006358815357089043 0.04428647831082344 0.14587458968162537 95 60 47 0 1 0
-0.005460036918520927 0.044288650155067444 0.14588575065135956 93 60 46 0 1 0
-0.004561764188110828 0.04429696872830391 0.14591717720031738 93 58 45 0 1 0
-0.00366226420737803 0.0442950502038002 0.14591485261917114 95 62 48 0 1 0
-0.002762179123237729 0.04428313300013542 0.1458796262741089 96 64 50 0 1 0
-0.0018620562041178346 0.04425979405641556 0.14580674469470978 89 57 43 0 1 0
-0.000962814490776509 0.044235266745090485 0.14572995901107788 90 57 43 0 1 0
-6.453881360357627e-05 0.04421806335449219 0.14567728340625763 98 63 50 0 1 0
0.0008331271237693727 0.044203419238328934 0.1456330567598343 98 63 50 0 1 0
0.0017300820909440517 0.04418477043509483 0.1455755978822708 100 65 52 0 1 0
0.0026259394362568855 0.04415971040725708 0.14549703896045685 102 67 54 0 1 0
0.0035208535846322775 0.04413507878780365 0.1454198956489563 100 65 52 0 1 0
0.004415544681251049 0.04411780461668968 0.14536696672439575 93 61 47 0 1 0
0.005310518201440573 0.044108375906944275 0.14533990621566772 97 65 51 0 1 0
0.006203304976224899 0.04408583790063858 0.14526963233947754 98 62 52 0 1 0
0.007093736436218023 0.044054098427295685 0.14516904950141907 101 65 55 0 1 0
0.007982130162417889 0.04401802271604538 0.1450541466474533 97 63 49 0 1 0
0.00887153297662735 0.043994005769491196 0.14497898519039154 101 66 52 0 1 0
0.009760702028870583 0.043973155319690704 0.14491428434848785 106 71 59 0 1 0
0.010649781674146652 0.04395526275038719 0.14485928416252136 103 68 55 0 1 0
0.01153631042689085 0.043930280953645706 0.1447809338569641 103 68 55 0 1 0
0.01242190320044756 0.04390542209148407 0.1447030007839203 100 65 52 0 1 0
0.01330550853163004 0.043877214193344116 0.14461401104927063 98 63 50 0 1 0
0.014188252389431 0.04384975880384445 0.14452749490737915 99 64 51 0 1 0
0.01507312711328268 0.04383162409067154 0.14447170495986938 98 63 50 0 1 0
0.01595364511013031 0.043803442269563675 0.1443827897310257 102 67 54 0 1 0
0.01683156006038189 0.04377137869596481 0.1442810595035553 101 66 53 0 1 0
0.017708588391542435 0.043740224093198776 0.14418235421180725 104 69 56 0 1 0
0.018594250082969666 0.04373227432370186 0.14416010677814484 102 67 54 0 1 0
0.019484175369143486 0.04373451694846153 0.14417144656181335 104 69 56 0 1 0
0.020371418446302414 0.043730728328228 0.14416292309761047 101 66 53 0 1 0
0.02125469595193863 0.04371901601552963 0.14412827789783478 100 65 52 0 1 0
0.022137833759188652 0.04370788484811783 0.1440955549478531 100 65 52 0 1 0
0.02301952801644802 0.04369479417800903 0.14405634999275208 100 65 52 0 1 0
0.023902535438537598 0.043685007840394974 0.14402806758880615 104 69 56 0 1 0
0.02478514052927494 0.04367513582110405 0.14399948716163635 105 70 57 0 1 0
0.02565773017704487 0.043648846447467804 0.1439167559146881 106 71 58 0 1 0
0.026529014110565186 0.04362209886312485 0.1438325196504593 105 70 57 0 1 0
0.027399608865380287 0.04359591752290726 0.1437501758337021 107 72 60 0 1 0
0.028276337310671806 0.043580781668424606 0.14370420575141907 105 70 59 0 1 0
0.029153864830732346 0.043567683547735214 0.14366497099399567 104 68 58 0 1 0
0.030030183494091034 0.043553564697504044 0.14362235367298126 101 68 55 0 1 0
0.030898351222276688 0.04352870211005211 0.14354433119297028 104 70 56 0 1 0
0.031764086335897446 0.0435018390417099 0.14345969259738922 104 69 57 0 1 0
0.032633040100336075 0.04348066449165344 0.14339381456375122 100 67 53 0 1 0
0.03350291773676872 0.04346175864338875 0.14333541691303253 98 62 49 0 1 0
0.03437058627605438 0.043440986424684525 0.1432708352804184 99 66 53 0 1 0
0.03523767367005348 0.04342048615217209 0.14320716261863708 101 65 55 0 1 0
0.036089371889829636 0.043382443487644196 0.14308562874794006 101 66 53 0 1 0
0.03693804517388344 0.04334260895848274 0.14295820891857147 100 65 52 0 1 0
0.03777420148253441 0.043290261179208755 0.14278945326805115 101 66 53 0 1 0
0.038627635687589645 0.04325958713889122 0.1426922231912613 101 68 54 0 1 0
0.03948231413960457 0.04323160648345947 0.1426038295030594 102 68 55 0 1 0
0.04033506289124489 0.043202731758356094 0.1425125151872635 103 68 55 0 1 0
0.04119308665394783 0.04318058118224144 0.14244337379932404 102 67 54 0 1 0
0.042051419615745544 0.04315963014960289 0.14237818121910095 104 70 56 0 1 0
0.04291971027851105 0.04314950108528137 0.14234869182109833 106 71 58 0 1 0
0.04379024729132652 0.043141964823007584 0.14232772588729858 107 72 59 0 1 0
0.044665370136499405 0.043139103800058365 0.14232221245765686 108 73 60 0 1 0
0.045536406338214874 0.04313245788216591 0.1423041969537735 107 72 59 0 1 0
0.0463968850672245 0.04311619699001312 0.14225448668003082 105 70 57 0 1 0
0.047272976487874985 0.043114759027957916 0.14225363731384277 106 71 57 0 1 0
0.04816693812608719 0.0431293249130249 0.1423056274652481 102 67 55 0 1 0
0.04905996844172478 0.04314252361655235 0.1423531025648117 105 70 57 0 1 0
0.04994168132543564 0.04314544424414635 0.1423666626214981 103 68 55 0 1 0
0.05082310363650322 0.0431479848921299 0.14237897098064423 101 66 53 0 1 0
0.051720030605793 0.043163347989320755 0.14243356883525848 101 66 53 0 1 0
0.052582550793886185 0.0431499257683754 0.14239320158958435 100 65 52 0 1 0
0.0534454844892025 0.04313725233078003 0.1423552930355072 97 62 49 0 1 0
0.054291728883981705 0.04311169683933258 0.1422748863697052 99 64 51 0 1 0
0.05512853339314461 0.043079543858766556 0.1421726942062378 100 67 53 0 1 0
0.055976103991270065 0.043056659400463104 0.14210107922554016 100 65 52 0 1 0
0.05685513839125633 0.04305827617645264 0.14211033284664154 100 65 52 0 1 0
0.0577334463596344 0.04305926710367203 0.14211751520633698 98 63 50 0 1 0
0.05865054205060005 0.043088700622320175 0.14221857488155365 98 63 50 0 1 0
0.059543490409851074 0.04309976100921631 0.14225898683071136 83 57 48 0 1 0
0.06040635704994202 0.04308900982141495 0.1422274261713028 64 45 39 0 1 0
0.061410143971443176 0.04317761957645416 0.14252382516860962 37 24 18 0 1 0
0.06244662404060364 0.043286360800266266 0.1428866982460022 27 18 14 0 1 0
0.06368593126535416 0.04353068023920059 0.14369715750217438 28 17 12 0 1 0
0.06504980474710464 0.04385223984718323 0.14476263523101807 50 41 37 0 1 0
0.06658044457435608 0.044275958091020584 0.1461654007434845 66 55 52 0 1 0
-0.07444671541452408 0.04579790309071541 0.14953716099262238 72 60 59 0 1 0
-0.07270915806293488 0.04528892785310745 0.14787930250167847 71 59 59 0 1 0
-0.07134656608104706 0.04500359296798706 0.14695163071155548 57 44 40 0 1 0
-0.07002460211515427 0.04473691061139107 0.14608480036258698 51 34 26 0 1 0
-0.06889696419239044 0.0445890799164772 0.14560605585575104 73 50 41 0 1 0
-0.06796584278345108 0.04456624761223793 0.14553546905517578 90 61 49 0 1 0
-0.06701815873384476 0.044531818479299545 0.14542700350284576 98 65 54 0 1 0
-0.06610587984323502 0.04452032968401909 0.1453934609889984 98 63 50 0 1 0
-0.06519010663032532 0.04450615867972374 0.14535117149353027 102 67 54 0 1 0
-0.06420033425092697 0.04444040730595589 0.1451403796672821 101 65 54 0 1 0
-0.06326315551996231 0.044409751892089844 0.1450442224740982 100 65 54 0 1 0
-0.062341250479221344 0.044389110058546066 0.144980788230896 98 62 51 0 1 0
-0.06141999363899231 0.04436837136745453 0.14491701126098633 101 65 53 0 1 0
-0.06054875999689102 0.04438372701406479 0.14497110247612 101 66 51 0 1 0
-0.05968020111322403 0.04440155625343323 0.1450333148241043 100 66 54 0 1 0
-0.05881669744849205 0.044423773884773254 0.1451098471879959 102 67 53 0 1 0
-0.05794045701622963 0.044436946511268616 0.1451568305492401 98 61 49 0 1 0
-0.05703365057706833 0.04442674294114113 0.14512747526168823 100 64 52 0 1 0
-0.056130148470401764 0.04441886395215988 0.14510570466518402 101 65 52 0 1 0
-0.0552593469619751 0.044437065720558167 0.14516912400722504 103 66 53 0 1 0
-0.05439409986138344 0.04446043074131012 0.14524942636489868 100 65 52 0 1 0
-0.05353480577468872 0.04448956623673439 0.14534857869148254 93 57 45 0 1 0
-0.05266553908586502 0.04451128840446472 0.1454235166311264 92 55 41 0 1 0
-0.05178501084446907 0.044524118304252625 0.14546941220760345 93 56 42 0 1 0
-0.05091237276792526 0.04454433545470238 0.14553944766521454 95 58 44 0 1 0
-0.050050560384988785 0.04457496106624603 0.14564348757266998 99 62 49 0 1 0
-0.049194276332855225 0.044611748307943344 0.1457676738500595 97 60 45 0 1 0
-0.04835009202361107 0.04466111585497856 0.14593295753002167 94 57 42 0 1 0
-0.04748520627617836 0.04469291865825653 0.14604085683822632 93 56 41 0 1 0
-0.04662078246474266 0.0447264201939106 0.14615432918071747 99 62 48 0 1 0
-0.04574654996395111 0.04475168511271477 0.14624089002609253 100 63 49 0 1 0
-0.0448661632835865 0.044771868735551834 0.14631083607673645 98 61 47 0 1 0
-0.043986186385154724 0.04479333385825157 0.14638498425483704 98 61 46 0 1 0
-0.04309134930372238 0.0448002964258194 0.14641173183918 102 65 51 0 1 0
-0.042199864983558655 0.04481115937232971 0.14645123481750488 99 62 49 0 1 0
-0.0413021594285965 0.0448157861828804 0.14647036790847778 92 57 44 0 1 0
-0.04039852321147919 0.04481407627463341 0.14646878838539124 97 60 47 0 1 0
-0.03948448970913887 0.04480055347084999 0.14642857015132904 98 63 50 0 1 0
-0.038592178374528885 0.044811658561229706 0.1464688926935196 99 64 51 0 1 0
-0.037709277123212814 0.04483453184366226 0.14654767513275146 93 57 42 0 1 0
-0.036809541285037994 0.0448380783200264 0.14656326174736023 94 58 45 0 1 0
-0.035895515233278275 0.04482400417327881 0.14652125537395477 96 60 47 0 1 0
-0.03497803211212158 0.044804833829402924 0.1464625895023346 94 59 45 0 1 0
-0.03406349569559097 0.04478856548666954 0.1464134156703949 95 58 45 0 1 0
-0.0331542044878006 0.04477855563163757 0.14638468623161316 101 65 52 0 1 0
-0.03223944082856178 0.04476044327020645 0.14632949233055115 100 64 51 0 1 0
-0.03132402524352074 0.044740431010723114 0.1462680548429489 101 66 53 0 1 0
-0.03040672279894352 0.044716496020555496 0.14619380235671997 100 65 52 0 1 0
-0.02950686775147915 0.044717609882354736 0.14620144665241241 102 67 54 0 1 0
-0.0286068357527256 0.04471858590841293 0.14620862901210785 101 66 53 0 1 0
-0.02770724892616272 0.04472040385007858 0.14621856808662415 103 67 54 0 1 0
-0.026810798794031143 0.04472765326499939 0.14624625444412231 98 61 48 0 1 0
-0.025909462943673134 0.044727031141519547 0.1462482511997223 99 64 51 0 1 0
-0.025007108226418495 0.04472462460398674 0.1462443619966507 103 66 53 0 1 0
-0.024118132889270782 0.04474692419171333 0.14632128179073334 101 65 52 0 1 0
-0.023227334022521973 0.04476753622293472 0.14639267325401306 102 65 52 0 1 0
-0.02232803963124752 0.04477284476161003 0.14641405642032623 103 67 54 0 1 0
-0.021425649523735046 0.04477222263813019 0.14641600847244263 98 63 49 0 1 0
-0.020520513877272606 0.044765640050172806 0.14639849960803986 100 64 51 0 1 0
-0.019612837582826614 0.044752754271030426 0.1463603526353836 98 63 50 0 1 0
-0.01870611310005188 0.04474100098013878 0.14632590115070343 91 57 43 0 1 0
-0.017796939238905907 0.04472200572490692 0.14626777172088623 93 61 47 0 1 0
-0.01688608154654503 0.0446966215968132 0.14618876576423645 96 63 50 0 1 0
-0.01597440615296364 0.04466620832681656 0.14609329402446747 99 66 52 0 1 0
-0.015063454397022724 0.04463443160057068 0.14599335193634033 101 66 51 0 1 0
-0.01415594294667244 0.044609587639570236 0.14591607451438904 98 63 48 0 1 0
-0.013248387724161148 0.04458136484026909 0.1458277404308319 98 64 49 0 1 0
-0.012340441346168518 0.04454776644706726 0.14572180807590485 98 65 49 0 1 0
-0.011432992294430733 0.04451098293066025 0.14560548961162567 94 58 45 0 1 0
-0.010526778176426888 0.044473327696323395 0.1454862803220749 97 62 49 0 1 0
-0.009625624865293503 0.044452209025621414 0.14542117714881897 96 61 48 0 1 0
-0.008723934181034565 0.04442423954606056 0.14533363282680511 97 62 49 0 1 0
-0.007823658175766468 0.044398121535778046 0.14525216817855835 102 67 54 0 1 0
-0.006924566347151995 0.04437309503555298 0.1451742798089981 104 69 56 0 1 0
-0.006028548814356327 0.04436356574296951 0.14514705538749695 97 64 50 0 1 0
-0.005134219769388437 0.04436565190553665 0.1451578587293625 92 60 46 0 1 0
-0.0042402236722409725 0.04437253251671791 0.14518433809280396 94 61 48 0 1 0
-0.003345030127093196 0.04436773061752319 0.1451726108789444 94 62 47 0 1 0
-0.002449624240398407 0.0443563312292099 0.14513927698135376 96 63 49 0 1 0
-0.0015542034525424242 0.04433251917362213 0.1450653225183487 91 56 43 0 1 0
-0.0006596824387088418 0.04430733993649483 0.14498688280582428 91 59 45 0 1 0
0.00023390422575175762 0.04428994655609131 0.14493393898010254 100 65 52 0 1 0
0.0011268607340753078 0.044273775070905685 0.14488498866558075 96 61 48 0 1 0
0.0020188691560178995 0.0442502498626709 0.1448119431734085 98 63 50 0 1 0
0.00290973880328238 0.04422322288155556 0.14472748339176178 103 68 55 0 1 0
0.003799899946898222 0.04420017823576927 0.1446560025215149 101 66 53 0 1 0
0.0046901823952794075 0.04418665170669556 0.14461569488048553 99 65 51 0 1 0
0.005580812692642212 0.04417988285422325 0.14459748566150665 95 61 48 0 1 0
0.006468649487942457 0.044155631214380264 0.14452208578586578 97 62 52 0 1 0
0.0073545523919165134 0.04412541538476944 0.1444271206855774 98 65 54 0 1 0
0.008239000104367733 0.044093724340200424 0.1443273425102234 99 64 53 0 1 0
0.0091236662119627 0.04406905546784401 0.1442505568265915 99 64 51 0 1 0
0.010007943026721478 0.04404689744114876 0.1441819667816162 105 70 57 0 1 0
0.010891635902225971 0.04402582347393036 0.14411693811416626 106 71 58 0 1 0
0.011774125508964062 0.04400328919291496 0.1440470814704895 102 67 54 0 1 0
0.012655132450163364 0.04397861286997795 0.14397026598453522 103 68 55 0 1 0
0.013532127253711224 0.043944016098976135 0.14386093616485596 100 65 52 0 1 0
0.01441135723143816 0.0439203679561615 0.1437874585390091 100 65 52 0 1 0
0.015288908034563065 0.04389452934265137 0.1437067836523056 100 65 52 0 1 0
0.01616474986076355 0.04386676102876663 0.1436198204755783 98 63 50 0 1 0
0.017035478726029396 0.043828632682561874 0.14349889755249023 98 63 50 0 1 0
0.017910009250044823 0.043803468346595764 0.14342044293880463 104 69 56 0 1 0
0.01879488117992878 0.04380468279123306 0.14342834055423737 103 68 55 0 1 0
0.019682301208376884 0.0438113659620285 0.1434541493654251 102 67 54 0 1 0
0.020566463470458984 0.04381045326590538 0.14345508813858032 100 65 52 0 1 0
0.02144773304462433 0.043803621083498 0.14343664050102234 103 68 55 0 1 0
0.022326262667775154 0.04379188269376755 0.1434021294116974 102 67 54 0 1 0
0.02320200577378273 0.04377570375800133 0.14335307478904724 101 66 53 0 1 0
0.02407955192029476 0.043763913214206696 0.14331839978694916 103 68 55 0 1 0
0.024956755340099335 0.04375229775905609 0.14328427612781525 104 69 56 0 1 0
0.025824259966611862 0.04372498393058777 0.14319872856140137 104 69 56 0 1 0
0.026693616062402725 0.04370243847370148 0.14312881231307983 107 72 59 0 1 0
0.02755928225815296 0.04367542639374733 0.14304426312446594 107 71 61 0 1 0
0.0284366924315691 0.043668072670698166 0.14302408695220947 108 72 62 0 1 0
0.029311534017324448 0.04365726187825203 0.14299260079860687 102 68 56 0 1 0
