ply
format ascii 1.0
element vertex 632
property float x
property float y
property float z
property uchar red
property uchar green
property uchar blue
property float nx
property float ny
property float nz
end_header
-0.058915503323078156 0.030159229412674904 0.22511863708496094 33 47 26 0 1 0
-0.05810854583978653 0.02995033748447895 0.22320722043514252 39 53 31 0 1 0
-0.05735200643539429 0.02971966378390789 0.22119902074337006 42 56 34 0 1 0
-0.056531310081481934 0.029535746201872826 0.21943216025829315 39 53 34 0 1 0
-0.05569997429847717 0.02936525084078312 0.2177405059337616 39 53 33 0 1 0
-0.05488176643848419 0.029193969443440437 0.21605394780635834 40 54 35 0 1 0
-0.054089099168777466 0.02901495434343815 0.21433889865875244 38 53 31 0 1 0
-0.05330763757228851 0.028836475685238838 0.21263568103313446 40 54 33 0 1 0
-0.05257295072078705 0.028639161959290504 0.21085120737552643 40 54 33 0 1 0
-0.051848724484443665 0.02844328247010708 0.20908360183238983 40 54 33 0 1 0
-0.05114156752824783 0.028245272114872932 0.20731577277183533 36 50 29 0 1 0
-0.050432853400707245 0.028054876253008842 0.205594003200531 37 51 30 0 1 0
-0.04971782863140106 0.02787417359650135 0.2039276361465454 37 51 30 0 1 0
-0.04893465340137482 0.02773393876850605 0.20246048271656036 37 51 30 0 1 0
-0.048116087913513184 0.02761615253984928 0.2011057436466217 38 52 31 0 1 0
-0.04727353900671005 0.02751428820192814 0.1998315304517746 39 53 32 0 1 0
-0.04647400230169296 0.02739526517689228 0.19848361611366272 39 53 32 0 1 0
-0.04573807120323181 0.027249937877058983 0.19702084362506866 39 53 32 0 1 0
-0.04505389183759689 0.02708491124212742 0.1954752653837204 38 55 34 0 1 0
-0.04435237497091293 0.02693307213485241 0.1939983069896698 39 53 34 0 1 0
-0.043600499629974365 0.026809053495526314 0.19265568256378174 36 52 32 0 1 0
-0.04287675768136978 0.026676220819354057 0.19127976894378662 40 56 37 0 1 0
-0.04223039001226425 0.026512840762734413 0.18977321684360504 38 53 40 0 1 0
-0.04122770577669144 0.026511801406741142 0.1890028417110443 35 46 45 0 1 0
-0.03975328058004379 0.02671763114631176 0.18915709853172302 34 43 43 0 1 0
-0.037948258221149445 0.02706202305853367 0.18991953134536743 28 37 37 0 1 0
-0.03596154600381851 0.02747657336294651 0.19097904860973358 36 45 45 0 1 0
-0.03396466374397278 0.027886556461453438 0.19200243055820465 35 42 44 0 1 0
-0.01909486949443817 0.03365350514650345 0.21646909415721893 12 11 16 0 1 0
-0.015150874853134155 0.03478839993476868 0.22050859034061432 11 10 15 0 1 0
-0.013762176036834717 0.034857526421546936 0.219879612326622 10 9 14 0 1 0
-0.012789145112037659 0.03475845605134964 0.21852335333824158 11 10 15 0 1 0
-0.011680826544761658 0.03471630811691284 0.217417374253273 13 12 17 0 1 0
-0.01051117479801178 0.03470008820295334 0.2164255529642105 13 12 17 0 1 0
-0.009391508996486664 0.034665532410144806 0.21535798907279968 10 9 14 0 1 0
-0.008254438638687134 0.03463922441005707 0.2143283635377884 13 12 17 0 1 0
-0.007052496075630188 0.03463904559612274 0.21341150999069214 12 11 16 0 1 0
-0.005889445543289185 0.034624941647052765 0.21243789792060852 13 10 16 0 1 0
-0.004910901188850403 0.03454282879829407 0.21118265390396118 15 11 16 0 1 0
-0.003840327262878418 0.0344972237944603 0.2100839465856552 62 28 20 0 1 0
-0.002420365810394287 0.034581512212753296 0.20952527225017548 60 27 17 0 1 0
-0.000642240047454834 0.034795068204402924 0.20949609577655792 68 34 28 0 1 0
0.0015792101621627808 0.035164810717105865 0.21009865403175354 57 21 18 0 1 0
0.05689185857772827 0.05405045300722122 0.2851809859275818 89 60 52 0 1 0
0.05920808017253876 0.05426602065563202 0.28475436568260193 91 63 54 0 1 0
0.061349838972091675 0.05441796034574509 0.2840656638145447 91 60 51 0 1 0
0.06236489117145538 0.05417995899915695 0.2818150222301483 94 63 53 0 1 0
0.06388641893863678 0.05412016063928604 0.28028467297554016 92 62 53 0 1 0
0.0655943900346756 0.054125502705574036 0.27901655435562134 92 61 53 0 1 0
0.06717540323734283 0.05408915877342224 0.2775864005088806 91 63 52 0 1 0
0.06879773736000061 0.05406813323497772 0.2762198746204376 91 62 52 0 1 0
0.07041904330253601 0.054048091173172 0.2748602032661438 92 62 52 0 1 0
0.07202103734016418 0.05402301251888275 0.2734840214252472 96 66 55 0 1 0
0.07374094426631927 0.05403748154640198 0.27226346731185913 95 64 54 0 1 0
0.07552090287208557 0.05407191812992096 0.271121084690094 93 62 52 0 1 0
0.07734529674053192 0.054120831191539764 0.2700347304344177 91 60 50 0 1 0
0.07913611829280853 0.05415923893451691 0.26890870928764343 89 58 48 0 1 0
0.08090005815029144 0.05418948084115982 0.2677524983882904 92 61 52 0 1 0
0.08269922435283661 0.054231055080890656 0.2666398286819458 89 61 50 0 1 0
0.08451975882053375 0.05427943170070648 0.2655530273914337 92 61 52 0 1 0
0.0863606184720993 0.05433410406112671 0.26448991894721985 92 61 51 0 1 0
0.08818888664245605 0.05438496172428131 0.2634126543998718 91 60 52 0 1 0
0.08998900651931763 0.05442739278078079 0.26230454444885254 91 60 52 0 1 0
0.09184218943119049 0.05448586493730545 0.2612555921077728 92 61 53 0 1 0
0.09372511506080627 0.054553091526031494 0.26023828983306885 88 57 49 0 1 0
0.0956072062253952 0.05461987107992172 0.25921887159347534 85 54 44 0 1 0
0.09748543798923492 0.05468533933162689 0.2581942677497864 84 53 44 0 1 0
0.09926497936248779 0.05472203344106674 0.2570662498474121 86 57 47 0 1 0
0.10093954205513 0.05472879111766815 0.25583237409591675 89 58 48 0 1 0
0.10253654420375824 0.05471409112215042 0.2545243799686432 88 60 48 0 1 0
0.1041688621044159 0.054710403084754944 0.2532578110694885 96 65 55 0 1 0
0.10579682886600494 0.05470631271600723 0.2519921362400055 94 62 52 0 1 0
0.10739648342132568 0.05469515174627304 0.2507040500640869 92 60 50 0 1 0
0.10901707410812378 0.054690711200237274 0.24944178760051727 92 60 50 0 1 0
0.11063846945762634 0.05468730628490448 0.24818533658981323 90 61 48 0 1 0
0.11222343146800995 0.054674722254276276 0.24689972400665283 90 60 47 0 1 0
0.11381237208843231 0.05466413497924805 0.24562343955039978 88 61 49 0 1 0
0.11529965698719025 0.05462699383497238 0.24425971508026123 89 61 48 0 1 0
0.11673600971698761 0.054577410221099854 0.24285763502120972 88 60 47 0 1 0
0.11816112697124481 0.05452622473239899 0.2414541393518448 95 64 54 0 1 0
0.1194126307964325 0.054430484771728516 0.2399064153432846 94 66 57 0 1 0
0.12067823112010956 0.0543404296040535 0.23838315904140472 91 66 54 0 1 0
0.12197422981262207 0.05426018685102463 0.23689766228199005 93 66 56 0 1 0
0.12307688593864441 0.05413149297237396 0.2352588176727295 90 59 47 0 1 0
0.12417066097259521 0.05400286614894867 0.2336270660161972 92 59 50 0 1 0
0.12548890709877014 0.053934045135974884 0.23219554126262665 94 62 50 0 1 0
0.12646234035491943 0.0537789985537529 0.2304915338754654 93 62 50 0 1 0
0.1276274472475052 0.05367504060268402 0.2289585918188095 89 63 52 0 1 0
-0.04569712281227112 0.053923703730106354 0.3578774631023407 94 68 60 0 1 0
-0.04387599229812622 0.05389576405286789 0.3563227951526642 94 70 62 0 1 0
-0.04206998646259308 0.05385985225439072 0.3547306954860687 94 66 57 0 1 0
-0.04018732160329819 0.05388674885034561 0.3534654974937439 91 64 53 0 1 0
-0.03826184570789337 0.05394703894853592 0.3523724377155304 93 66 55 0 1 0
-0.036294907331466675 0.054037563502788544 0.35143330693244934 93 66 55 0 1 0
-0.03440020978450775 0.05407481640577316 0.3502224385738373 97 67 57 0 1 0
-0.032538242638111115 0.05408984422683716 0.34890010952949524 94 67 55 0 1 0
-0.030703231692314148 0.05408792942762375 0.3474944531917572 95 68 56 0 1 0
-0.02852080762386322 0.05432320386171341 0.34727904200553894 96 65 55 0 1 0
-0.060326166450977325 0.03122740425169468 0.22984127700328827 36 50 29 0 1 0
-0.05974915623664856 0.03084723837673664 0.22707216441631317 35 49 28 0 1 0
-0.05890597403049469 0.030649038031697273 0.22521652281284332 34 48 27 0 1 0
-0.05810518562793732 0.030432919040322304 0.22328320145606995 37 51 30 0 1 0
-0.05735158920288086 0.030196866020560265 0.2212635576725006 41 55 34 0 1 0
-0.05653068423271179 0.030010098591446877 0.21949487924575806 38 52 33 0 1 0
-0.055694662034511566 0.029839547351002693 0.21781419217586517 40 54 35 0 1 0
-0.05487365275621414 0.029667044058442116 0.21613292396068573 40 54 36 0 1 0
-0.05407489091157913 0.02948855794966221 0.21443186700344086 36 51 29 0 1 0
-0.053294017910957336 0.02930678240954876 0.2127242535352707 40 54 33 0 1 0
-0.05255616456270218 0.02910805679857731 0.21094536781311035 38 52 31 0 1 0
-0.05183188617229462 0.028909051790833473 0.20917512476444244 39 53 32 0 1 0
-0.05112940073013306 0.028705397620797157 0.2073928862810135 36 50 29 0 1 0
-0.05041687935590744 0.028513995930552483 0.20567816495895386 40 54 33 0 1 0
-0.049686022102832794 0.028338594362139702 0.20404759049415588 38 52 31 0 1 0
-0.04892299324274063 0.02818554826080799 0.2025296837091446 37 51 30 0 1 0
-0.04810391366481781 0.02806592918932438 0.20117411017417908 40 54 33 0 1 0
-0.047261081635951996 0.02796231396496296 0.1998986154794693 41 55 34 0 1 0
-0.04645977169275284 0.027842076495289803 0.19855274260044098 39 53 32 0 1 0
-0.045727722346782684 0.02769247628748417 0.19707947969436646 39 53 33 0 1 0
-0.045052483677864075 0.02752060256898403 0.1955127865076065 35 50 28 0 1 0
-0.04434818774461746 0.02736770547926426 0.19404038786888123 37 51 32 0 1 0
-0.043582670390605927 0.02724798582494259 0.19272486865520477 31 47 26 0 1 0
-0.042857296764850616 0.02711368165910244 0.19135044515132904 39 55 36 0 1 0
-0.04222749173641205 0.026940232142806053 0.18980862200260162 33 48 36 0 1 0
-0.04123920202255249 0.026932189241051674 0.18900857865810394 34 44 43 0 1 0
-0.03977024555206299 0.027137545868754387 0.18915171921253204 35 44 45 0 1 0
-0.03797122836112976 0.027482895180583 0.1899024397134781 24 33 33 0 1 0
-0.035990387201309204 0.02789934165775776 0.1909509301185608 34 43 42 0 1 0
-0.03399042785167694 0.02831503190100193 0.1919802576303482 37 43 47 0 1 0
-0.02017153799533844 0.03370559960603714 0.2145320475101471 10 9 14 0 1 0
-0.015195325016975403 0.03528855741024017 0.22045688331127167 9 8 13 0 1 0
-0.013861842453479767 0.03533530980348587 0.21973057091236115 10 9 13 0 1 0
-0.012803785502910614 0.035269595682621 0.21852393448352814 10 8 14 0 1 0
-0.01169111579656601 0.0352281779050827 0.21742478013038635 13 12 16 0 1 0
-0.010524027049541473 0.03521019220352173 0.21642795205116272 12 11 15 0 1 0
-0.009406313300132751 0.035173915326595306 0.2153565138578415 11 10 15 0 1 0
-0.008264653384685516 0.03514856845140457 0.21433384716510773 11 10 15 0 1 0
-0.007070206105709076 0.03514494746923447 0.21340428292751312 13 12 17 0 1 0
-0.0059148818254470825 0.03512720763683319 0.21241794526576996 14 11 17 0 1 0
-0.004935234785079956 0.03504408150911331 0.21116413176059723 10 7 11 0 1 0
-0.0038734450936317444 0.034994177520275116 0.21005161106586456 62 31 22 0 1 0
-0.0024660304188728333 0.03507433086633682 0.2094738781452179 62 29 20 0 1 0
-0.0006810426712036133 0.03529246151447296 0.20945526659488678 70 36 30 0 1 0
0.0015069767832756042 0.035653844475746155 0.21000878512859344 62 26 22 0 1 0
0.055002495646476746 0.05410388857126236 0.28248730301856995 89 58 50 0 1 0
0.05714444816112518 0.05426561087369919 0.28185170888900757 89 61 52 0 1 0
0.059388816356658936 0.05446135252714157 0.2813469171524048 91 60 51 0 1 0
0.06042538583278656 0.05423365533351898 0.27916350960731506 95 64 53 0 1 0
0.061954379081726074 0.054181113839149475 0.2776798605918884 92 62 53 0 1 0
0.0636679083108902 0.05419362336397171 0.2764549255371094 93 63 55 0 1 0
0.06524099409580231 0.05415923893451691 0.2750491499900818 89 60 49 0 1 0
0.0668438971042633 0.05413644015789032 0.27369174361228943 93 63 53 0 1 0
0.06844432651996613 0.05411415547132492 0.2723393440246582 90 58 48 0 1 0
0.07003334164619446 0.05408939719200134 0.2709805369377136 93 62 52 0 1 0
0.07173925638198853 0.054104283452034 0.269775927066803 91 60 50 0 1 0
0.07349921762943268 0.05413738638162613 0.2686419188976288 94 63 53 0 1 0
0.07530289888381958 0.05418490618467331 0.2675631642341614 94 63 53 0 1 0
0.07706812024116516 0.054220251739025116 0.26643893122673035 92 61 51 0 1 0
0.07880808413028717 0.0542478933930397 0.2652866840362549 91 60 50 0 1 0
0.08059617877006531 0.05429109185934067 0.26419320702552795 89 59 49 0 1 0
0.08241838216781616 0.054345086216926575 0.2631400525569916 92 61 52 0 1 0
0.08424445986747742 0.05440028756856918 0.2620912790298462 92 61 51 0 1 0
0.08607344329357147 0.05445634573698044 0.2610456347465515 92 61 53 0 1 0
0.08786042034626007 0.05449958145618439 0.2599532902240753 93 62 54 0 1 0
0.08966201543807983 0.05454740673303604 0.2588779032230377 92 62 52 0 1 0
0.09148973226547241 0.05460313707590103 0.2578312158584595 92 61 51 0 1 0
0.09331861138343811 0.054659195244312286 0.25678563117980957 91 60 50 0 1 0
0.09514454007148743 0.05471434444189072 0.25573670864105225 85 54 46 0 1 0
0.09684930741786957 0.054733969271183014 0.25456199049949646 86 55 45 0 1 0
0.09843924641609192 0.0547206848859787 0.25327280163764954 85 57 46 0 1 0
0.09997725486755371 0.05469338595867157 0.2519370913505554 87 55 45 0 1 0
0.10156260430812836 0.05468083173036575 0.2506558299064636 91 60 50 0 1 0
0.10317458212375641 0.054676808416843414 0.24940666556358337 92 60 50 0 1 0
0.10474064946174622 0.054660625755786896 0.2481178194284439 92 60 49 0 1 0
0.10633309185504913 0.05465283244848251 0.2468603551387787 91 60 50 0 1 0
0.10796186327934265 0.054656021296978 0.24564261734485626 92 60 49 0 1 0
0.10961437225341797 0.054666467010974884 0.2444513887166977 92 61 48 0 1 0
0.11131909489631653 0.0546918585896492 0.24331209063529968 90 61 51 0 1 0
0.11289586126804352 0.05468270182609558 0.24205820262432098 91 62 50 0 1 0
0.11439479887485504 0.054653286933898926 0.24073922634124756 89 61 50 0 1 0
0.115941122174263 0.05463774502277374 0.23946930468082428 92 61 50 0 1 0
0.1174117922782898 0.05460289120674133 0.23813839256763458 96 64 52 0 1 0
0.11885881423950195 0.054562896490097046 0.23679400980472565 91 62 52 0 1 0
0.1201941967010498 0.054494649171829224 0.23536118865013123 95 65 56 0 1 0
0.1213831901550293 0.054389581084251404 0.2338138222694397 94 62 51 0 1 0
0.12251335382461548 0.05427120625972748 0.2322295904159546 93 61 49 0 1 0
0.1235930323600769 0.05414195358753204 0.23061694204807281 94 60 49 0 1 0
0.1245642751455307 0.05398710072040558 0.22892975807189941 92 60 47 0 1 0
0.1254340410232544 0.05380889028310776 0.2271765172481537 92 60 49 0 1 0
0.12647315859794617 0.05367659777402878 0.22557608783245087 91 62 50 0 1 0
-0.05185127258300781 0.05365590751171112 0.35635077953338623 92 67 58 0 1 0
-0.049702130258083344 0.05392643064260483 0.35636135935783386 93 67 56 0 1 0
-0.04785705357789993 0.05392982065677643 0.35498443245887756 94 68 58 0 1 0
-0.04599527269601822 0.05394949018955231 0.3536933660507202 95 66 57 0 1 0
-0.044139087200164795 0.05396635830402374 0.35238954424858093 95 66 57 0 1 0
-0.04231172800064087 0.05396232753992081 0.3509809970855713 94 66 55 0 1 0
-0.04039183259010315 0.05403215438127518 0.3499497175216675 95 66 55 0 1 0
-0.03846486657857895 0.054106712341308594 0.34894171357154846 97 67 57 0 1 0
-0.03655487298965454 0.054167985916137695 0.34786614775657654 93 63 53 0 1 0
-0.034759655594825745 0.054146215319633484 0.34637451171875 95 67 56 0 1 0
-0.03283977508544922 0.05421574413776398 0.34534144401550293 94 68 54 0 1 0
-0.030669093132019043 0.05445864051580429 0.3451683819293976 98 67 57 0 1 0
-0.06077102571725845 0.03194612264633179 0.23161986470222473 39 46 28 0 1 0
-0.06027211993932724 0.03149958699941635 0.22853749990463257 38 52 31 0 1 0
-0.059469446539878845 0.03126586973667145 0.22651398181915283 34 48 27 0 1 0
-0.05862317234277725 0.031069284304976463 0.22468236088752747 35 49 29 0 1 0
-0.057848647236824036 0.030836300924420357 0.22268462181091309 36 51 31 0 1 0
-0.05707839876413345 0.030609915032982826 0.22073006629943848 39 53 32 0 1 0
-0.056249044835567474 0.030427763238549232 0.21899867057800293 38 52 33 0 1 0
-0.05541021376848221 0.030258378013968468 0.21733738481998444 37 51 30 0 1 0
-0.05459634214639664 0.03008113242685795 0.21564745903015137 40 54 32 0 1 0
-0.053804248571395874 0.02989821322262287 0.2139396369457245 40 55 34 0 1 0
-0.053041376173496246 0.029705682769417763 0.2121957242488861 41 54 31 0 1 0
-0.052314743399620056 0.029500087723135948 0.21040014922618866 37 50 30 0 1 0
-0.05159853398799896 0.029296068474650383 0.20862197875976562 38 52 31 0 1 0
-0.05090627074241638 0.029086271300911903 0.20682696998119354 42 56 35 0 1 0
-0.050174325704574585 0.028904588893055916 0.20517221093177795 38 52 31 0 1 0
-0.04942385107278824 0.028738761320710182 0.20359942317008972 42 56 33 0 1 0
-0.04864107072353363 0.02859518863260746 0.20213694870471954 39 55 31 0 1 0
-0.04781607538461685 0.02847793884575367 0.20080192387104034 38 52 31 0 1 0
-0.04698275029659271 0.028368977829813957 0.19951081275939941 37 51 30 0 1 0
-0.04620203375816345 0.02823791839182377 0.1981256902217865 36 50 29 0 1 0
-0.04550604522228241 0.028070000931620598 0.19658152759075165 37 51 31 0 1 0
-0.04483833163976669 0.027893776074051857 0.19500844180583954 42 56 35 0 1 0
-0.044103749096393585 0.027754636481404305 0.1936093270778656 38 53 35 0 1 0
-0.0433223694562912 0.02764176018536091 0.19233384728431702 35 50 32 0 1 0
-0.04265357553958893 0.027480514720082283 0.19085069000720978 34 50 31 0 1 0
-0.04196516424417496 0.027333011850714684 0.18943588435649872 31 42 40 0 1 0
-0.040811799466609955 0.027399448677897453 0.18896465003490448 36 47 46 0 1 0
-0.03923061490058899 0.027655547484755516 0.18931809067726135 36 45 46 0 1 0
-0.03734423965215683 0.028040600940585136 0.1902213990688324 23 33 33 0 1 0
-0.03536151349544525 0.028459278866648674 0.1912553459405899 35 45 45 0 1 0
-0.03332716226577759 0.02889120765030384 0.192330464720726 24 29 31 0 1 0
-0.01615755259990692 0.0357450395822525 0.2208363115787506 8 7 10 0 1 0
-0.014545783400535583 0.035909101366996765 0.2206091433763504 10 9 12 0 1 0
-0.013613730669021606 0.03578798472881317 0.21916964650154114 10 9 14 0 1 0
-0.012456268072128296 0.035763002932071686 0.21814163029193878 9 9 11 0 1 0
-0.01130436360836029 0.03573714941740036 0.21711252629756927 11 10 13 0 1 0
-0.010164245963096619 0.03570793569087982 0.21607202291488647 11 10 15 0 1 0
-0.009052790701389313 0.0356687530875206 0.21499285101890564 13 12 16 0 1 0
-0.00789795070886612 0.03564827889204025 0.2139941155910492 12 11 14 0 1 0
-0.006693936884403229 0.035648174583911896 0.21308153867721558 13 12 17 0 1 0
-0.005593515932559967 0.03560891002416611 0.2120102345943451 12 10 16 0 1 0
-0.004620403051376343 0.035522617399692535 0.2107505053281784 30 12 14 0 1 0
-0.0034866034984588623 0.035499535501003265 0.2097519338130951 59 27 16 0 1 0
-0.0019362419843673706 0.035633549094200134 0.20938928425312042 66 33 26 0 1 0
-0.00010580569505691528 0.03586948662996292 0.20943181216716766 68 34 29 0 1 0
0.0020552873611450195 0.036222971975803375 0.20993581414222717 78 46 41 0 1 0
0.05446295440196991 0.05442872643470764 0.28050488233566284 90 59 50 0 1 0
0.05604909360408783 0.05439615249633789 0.27910616993904114 88 58 49 0 1 0
0.058068886399269104 0.054518923163414 0.2783198654651642 91 61 52 0 1 0
0.058946624398231506 0.054239220917224884 0.2759609818458557 89 60 51 0 1 0
0.06065772473812103 0.05425567924976349 0.2747645974159241 91 60 52 0 1 0
0.06229875981807709 0.0542486235499382 0.2734788954257965 92 61 52 0 1 0
0.06388154625892639 0.054222725331783295 0.27212315797805786 92 62 52 0 1 0
0.06547215580940247 0.05420087277889252 0.27078601717948914 92 64 52 0 1 0
0.0670541375875473 0.054177425801754 0.2694457769393921 88 58 47 0 1 0
0.06866183876991272 0.054163865745067596 0.26814591884613037 91 60 50 0 1 0
0.07037182152271271 0.05418524146080017 0.2669801712036133 90 60 50 0 1 0
0.0721195787191391 0.05421951413154602 0.26586392521858215 94 63 53 0 1 0
0.0739092230796814 0.05426771193742752 0.2648003101348877 93 62 52 0 1 0
0.0756015032529831 0.054284632205963135 0.2636209726333618 93 62 52 0 1 0
0.07733766734600067 0.05431617051362991 0.2624969184398651 93 62 52 0 1 0
0.07913218438625336 0.054366543889045715 0.26144278049468994 91 60 50 0 1 0
0.08093833923339844 0.054420627653598785 0.26040229201316833 91 60 50 0 1 0
0.08277100324630737 0.05448296666145325 0.259391725063324 92 61 53 0 1 0
0.08455614745616913 0.05453045666217804 0.2583272159099579 91 60 50 0 1 0
0.08630597591400146 0.05456719547510147 0.25722435116767883 93 63 54 0 1 0
0.08808645606040955 0.05461352318525314 0.256156325340271 90 59 49 0 1 0
0.08987294137477875 0.05466178059577942 0.2550954222679138 90 60 50 0 1 0
0.09166410565376282 0.05471150577068329 0.2540399432182312 89 60 50 0 1 0
0.09340895712375641 0.05474749952554703 0.25293630361557007 90 60 49 0 1 0
0.09501922130584717 0.054743967950344086 0.2516952157020569 86 55 46 0 1 0
0.09652537107467651 0.054710716009140015 0.250353068113327 84 53 44 0 1 0
0.09803684055805206 0.05468028783798218 0.24902386963367462 86 56 46 0 1 0
0.09957970678806305 0.054660141468048096 0.2477332353591919 89 58 48 0 1 0
0.1011507660150528 0.05464913696050644 0.24647657573223114 88 57 46 0 1 0
0.10268862545490265 0.054629579186439514 0.24519328773021698 90 59 49 0 1 0
0.10428129136562347 0.054626546800136566 0.24396860599517822 92 60 49 0 1 0
0.10589773952960968 0.05463099479675293 0.24277114868164062 95 64 53 0 1 0
0.10758088529109955 0.054654717445373535 0.24163992702960968 90 60 49 0 1 0
0.10930031538009644 0.054688893258571625 0.24054460227489471 91 61 52 0 1 0
0.1108713150024414 0.05468246340751648 0.2393157184123993 90 60 51 0 1 0
0.11245302855968475 0.05467976629734039 0.2381013184785843 92 61 49 0 1 0
0.1140432208776474 0.054680101573467255 0.23689888417720795 93 61 50 0 1 0
0.1156356930732727 0.05468175560235977 0.23570269346237183 90 59 48 0 1 0
0.11721263825893402 0.05467991530895233 0.23449712991714478 91 59 50 0 1 0
0.11864463984966278 0.054640188813209534 0.23317186534404755 95 60 51 0 1 0
0.11976271867752075 0.054518602788448334 0.23158858716487885 94 62 52 0 1 0
0.12096387147903442 0.054421089589595795 0.23008818924427032 95 64 52 0 1 0
0.12213480472564697 0.054317593574523926 0.2285744547843933 93 61 51 0 1 0
0.12310083210468292 0.0541628822684288 0.2269057333469391 93 62 51 0 1 0
0.12423847615718842 0.05405503511428833 0.22539080679416656 90 60 50 0 1 0
0.124677374958992 0.053770072758197784 0.2233324944972992 92 60 49 0 1 0
0.1250251829624176 0.0534660667181015 0.22122780978679657 90 63 57 0 1 0
0.12630413472652435 0.05340215563774109 0.21987198293209076 83 63 59 0 1 0
-0.054364390671253204 0.053812265396118164 0.35473206639289856 94 64 55 0 1 0
-0.05248032510280609 0.05386614799499512 0.35363149642944336 96 66 56 0 1 0
-0.05056507885456085 0.05394742637872696 0.3526713252067566 95 66 54 0 1 0
-0.04870716482400894 0.05397848039865494 0.35145387053489685 94 66 59 0 1 0
-0.04682215303182602 0.054033324122428894 0.3503582775592804 97 64 55 0 1 0
-0.04494432359933853 0.054082341492176056 0.3492332696914673 99 68 58 0 1 0
-0.04312223941087723 0.05408726632595062 0.3478865623474121 96 65 55 0 1 0
-0.04123120754957199 0.054148122668266296 0.34682244062423706 95 65 56 0 1 0
-0.03936389088630676 0.05419069528579712 0.3456667959690094 97 66 56 0 1 0
-0.03750740736722946 0.05422573536634445 0.34447431564331055 94 63 53 0 1 0
-0.03575468063354492 0.05418583005666733 0.34291166067123413 95 66 56 0 1 0
-0.03384234756231308 0.05426402390003204 0.3419352173805237 95 68 56 0 1 0
-0.03167876601219177 0.05451759696006775 0.3418184518814087 97 66 56 0 1 0
-0.030492208898067474 0.054091259837150574 0.33837106823921204 96 67 57 0 1 0
-0.06036793440580368 0.03218604624271393 0.22985517978668213 35 47 27 0 1 0
-0.05971807241439819 0.03184325248003006 0.2273130565881729 36 50 29 0 1 0
-0.05888032913208008 0.03163480758666992 0.22543297708034515 37 49 28 0 1 0
-0.058086566627025604 0.0314071848988533 0.22347138822078705 38 51 32 0 1 0
-0.057346880435943604 0.031155111268162727 0.22140423953533173 40 54 33 0 1 0
-0.056528061628341675 0.030961034819483757 0.21962445974349976 38 52 33 0 1 0
-0.055683255195617676 0.0307901781052351 0.21796394884586334 40 55 35 0 1 0
-0.05485295504331589 0.030617481097579002 0.21630342304706573 40 53 31 0 1 0
-0.054061248898506165 0.030429037287831306 0.2145777940750122 38 53 30 0 1 0
-0.0532950758934021 0.030233031138777733 0.21282623708248138 37 51 29 0 1 0
-0.052561260759830475 0.030025964602828026 0.21103288233280182 40 54 33 0 1 0
-0.05184459686279297 0.02981673739850521 0.20923958718776703 41 55 34 0 1 0
-0.051146335899829865 0.029604757204651833 0.2074436992406845 40 54 33 0 1 0
-0.05041954666376114 0.02941536344587803 0.2057614028453827 42 55 36 0 1 0
-0.04966634511947632 0.02924642153084278 0.20418158173561096 37 51 28 0 1 0
-0.04889269173145294 0.029093941673636436 0.20268477499485016 40 55 30 0 1 0
-0.04807335138320923 0.028970202431082726 0.20132549107074738 35 49 28 0 1 0
-0.04724113643169403 0.028857337310910225 0.20002153515815735 38 52 31 0 1 0
-0.04645589739084244 0.028724906966090202 0.1986359804868698 36 50 29 0 1 0
-0.04574063420295715 0.028562316671013832 0.19712281227111816 39 53 33 0 1 0
-0.0450860857963562 0.028375273570418358 0.1955091506242752 38 52 32 0 1 0
-0.04437863826751709 0.028219403699040413 0.19404210150241852 38 52 34 0 1 0
-0.04359178990125656 0.028106098994612694 0.19276979565620422 43 57 36 0 1 0
-0.042868807911872864 0.02796650491654873 0.19138838350772858 33 49 30 0 1 0
-0.0422373041510582 0.027788793668150902 0.18984799087047577 32 46 33 0 1 0
-0.041264116764068604 0.027772633358836174 0.18901625275611877 33 45 42 0 1 0
-0.03980369120836258 0.027977963909506798 0.1891418844461441 35 44 44 0 1 0
-0.038020916283130646 0.02832317166030407 0.18986108899116516 25 36 35 0 1 0
-0.03604772686958313 0.02874506451189518 0.19089537858963013 37 48 47 0 1 0
-0.03400915861129761 0.02918643318116665 0.19199678301811218 37 46 46 0 1 0
-0.024304501712322235 0.032925449311733246 0.2070411890745163 13 11 14 0 1 0
-0.015293635427951813 0.036284610629081726 0.22033657133579254 10 9 14 0 1 0
-0.014034055173397064 0.03630051016807556 0.21948033571243286 11 10 13 0 1 0
-0.012853436172008514 0.03628397732973099 0.21848970651626587 11 10 13 0 1 0
-0.011719129979610443 0.0362495481967926 0.21742692589759827 10 9 12 0 1 0
-0.010560743510723114 0.03622652590274811 0.216414213180542 10 9 14 0 1 0
-0.00944710522890091 0.036186739802360535 0.21533502638339996 12 11 17 0 1 0
-0.008311614394187927 0.036157332360744476 0.21430142223834991 12 11 15 0 1 0
-0.00712314248085022 0.036150284111499786 0.21336159110069275 12 11 16 0 1 0
-0.005962386727333069 0.03613331913948059 0.21238338947296143 13 12 17 0 1 0
-0.004971563816070557 0.036051660776138306 0.21114636957645416 18 8 15 0 1 0
-0.003929659724235535 0.03599199652671814 0.2100023776292801 60 29 20 0 1 0
-0.0025739818811416626 0.03605339676141739 0.20934587717056274 61 28 19 0 1 0
-0.00080137699842453 0.036271095275878906 0.20930971205234528 70 33 28 0 1 0
0.0013855025172233582 0.03663955628871918 0.2098628729581833 57 27 24 0 1 0
0.05126740038394928 0.054182007908821106 0.2771613299846649 91 60 53 0 1 0
0.053001150488853455 0.054210491478443146 0.2760223150253296 89 58 50 0 1 0
0.05563823878765106 0.05456428974866867 0.27614763379096985 89 58 50 0 1 0
0.056634321808815 0.05432785302400589 0.2739804983139038 95 64 56 0 1 0
0.058189332485198975 0.05429403483867645 0.2726036012172699 93 62 54 0 1 0
0.059881389141082764 0.054309725761413574 0.2714195251464844 93 62 53 0 1 0
0.06147147715091705 0.05429072678089142 0.2701048254966736 92 62 53 0 1 0
0.06305994093418121 0.05427243560552597 0.2687956392765045 92 61 51 0 1 0
0.06464774906635284 0.0542551651597023 0.26749300956726074 96 65 55 0 1 0
0.06623344123363495 0.054238393902778625 0.2661949694156647 92 61 51 0 1 0
0.0678977370262146 0.05424913018941879 0.26500222086906433 93 62 52 0 1 0
0.06962141394615173 0.05428031086921692 0.26388686895370483 88 57 47 0 1 0
0.07137227058410645 0.0543207973241806 0.2628067433834076 89 58 48 0 1 0
0.07306313514709473 0.05434189736843109 0.26165586709976196 93 62 52 0 1 0
0.07473859190940857 0.054358527064323425 0.26048991084098816 93 62 52 0 1 0
0.0764647126197815 0.054392009973526 0.2593865990638733 94 63 53 0 1 0
0.07824015617370605 0.054441533982753754 0.2583419382572174 91 60 50 0 1 0
0.08003102242946625 0.05449598282575607 0.25731509923934937 90 59 49 0 1 0
0.08180035650730133 0.054543644189834595 0.25626397132873535 88 57 49 0 1 0
0.08352683484554291 0.05457805097103119 0.25516584515571594 90 61 52 0 1 0
0.08527760207653046 0.05462024360895157 0.25409597158432007 92 61 51 0 1 0
0.08703102171421051 0.05466340482234955 0.2530299127101898 90 60 50 0 1 0
0.08879204094409943 0.05470903217792511 0.25197282433509827 92 62 52 0 1 0
0.09053556621074677 0.05474947392940521 0.25089800357818604 87 57 47 0 1 0
0.09215402603149414 0.054752640426158905 0.24969451129436493 92 61 51 0 1 0
0.09367810189723969 0.05472847819328308 0.2483987957239151 90 58 51 0 1 0
0.09513905644416809 0.054686807096004486 0.24704596400260925 89 58 48 0 1 0
0.09665229916572571 0.054661825299263 0.24575354158878326 88 57 46 0 1 0
0.09819559752941132 0.05464670807123184 0.2444974184036255 89 57 47 0 1 0
0.09971173107624054 0.05462469905614853 0.24322061240673065 90 59 49 0 1 0
0.1012771725654602 0.05461788922548294 0.24199749529361725 89 57 47 0 1 0
0.10288642346858978 0.05462438613176346 0.24082088470458984 90 58 48 0 1 0
0.10453307628631592 0.054642096161842346 0.2396831512451172 91 60 50 0 1 0
0.10623094439506531 0.0546746626496315 0.2385956346988678 88 59 50 0 1 0
0.10785649716854095 0.05468732863664627 0.23744367063045502 90 59 49 0 1 0
0.10942739248275757 0.054685384035110474 0.2362455576658249 90 59 48 0 1 0
0.11108946800231934 0.054709263145923615 0.2351330816745758 90 61 51 0 1 0
0.11276014149188995 0.05473586171865463 0.23403042554855347 90 60 47 0 1 0
0.11442369222640991 0.054760873317718506 0.23292359709739685 90 58 49 0 1 0
0.1160343587398529 0.054771967232227325 0.23177345097064972 90 59 49 0 1 0
0.11737470328807831 0.054711148142814636 0.23039716482162476 94 64 55 0 1 0
0.11863720417022705 0.0546310618519783 0.22896435856819153 94 63 52 0 1 0
0.1198619157075882 0.054542675614356995 0.22751037776470184 90 61 50 0 1 0
0.12101398408412933 0.05443695932626724 0.2260076403617859 93 66 53 0 1 0
0.12195424735546112 0.054277896881103516 0.22434566915035248 93 62 50 0 1 0
0.12292879819869995 0.054130375385284424 0.22272680699825287 94 64 53 0 1 0
0.12350903451442719 0.053883589804172516 0.22081181406974792 93 62 50 0 1 0
0.12375365197658539 0.05355442315340042 0.21865731477737427 90 63 53 0 1 0
0.12471817433834076 0.053413353860378265 0.21708464622497559 91 65 55 0 1 0
-0.059735506772994995 0.053491055965423584 0.35251301527023315 90 69 63 0 1 0
-0.057554006576538086 0.053857751190662384 0.3530381917953491 91 66 58 0 1 0
-0.05572868138551712 0.05387238413095474 0.3517499268054962 94 66 57 0 1 0
-0.053827688097953796 0.053958527743816376 0.3508274555206299 94 66 56 0 1 0
-0.05192600190639496 0.0540437176823616 0.3498988449573517 96 64 55 0 1 0
-0.05008278787136078 0.054076455533504486 0.34870409965515137 95 63 53 0 1 0
-0.048234254121780396 0.054114796221256256 0.3475385010242462 95 62 53 0 1 0
-0.046371445059776306 0.0541657879948616 0.34643691778182983 96 65 55 0 1 0
-0.04456251114606857 0.054173216223716736 0.3451184034347534 100 69 59 0 1 0
-0.04272312670946121 0.0542069673538208 0.34393247961997986 97 66 57 0 1 0
-0.04090827703475952 0.054222576320171356 0.34265783429145813 97 66 56 0 1 0
-0.03909388184547424 0.05423952639102936 0.34139150381088257 96 65 55 0 1 0
-0.037331707775592804 0.054219186305999756 0.33994394540786743 96 65 55 0 1 0
-0.03554229438304901 0.05422178655862808 0.3386114835739136 92 64 53 0 1 0
-0.03362768888473511 0.054315924644470215 0.33772608637809753 94 65 55 0 1 0
-0.03184754401445389 0.054314322769641876 0.33637580275535583 95 67 56 0 1 0
-0.06069018691778183 0.03272715210914612 0.2304527461528778 36 46 27 0 1 0
-0.060008034110069275 0.032397545874118805 0.22798997163772583 36 50 29 0 1 0
-0.05916052311658859 0.032189346849918365 0.2261204868555069 37 50 29 0 1 0
-0.05833116173744202 0.03197813779115677 0.22424690425395966 38 52 33 0 1 0
-0.05760277807712555 0.03171175718307495 0.2221231609582901 39 52 29 0 1 0
-0.0568198636174202 0.031489528715610504 0.22021937370300293 39 53 32 0 1 0
-0.05597246438264847 0.03131527453660965 0.21855074167251587 40 53 33 0 1 0
-0.055129796266555786 0.031145064160227776 0.21690955758094788 37 50 29 0 1 0
-0.0543399453163147 0.030950287356972694 0.21516291797161102 36 52 28 0 1 0
-0.053565189242362976 0.030754031613469124 0.2134188711643219 40 55 31 0 1 0
-0.05282876640558243 0.03054303489625454 0.21161657571792603 37 51 30 0 1 0
-0.05209406465291977 0.030338598415255547 0.20985431969165802 39 53 32 0 1 0
-0.05138450860977173 0.030127400532364845 0.2080710530281067 44 59 34 0 1 0
-0.05067232996225357 0.029924901202321053 0.20633724331855774 39 54 31 0 1 0
-0.049907006323337555 0.029757918789982796 0.204773411154747 39 53 32 0 1 0
-0.04914432764053345 0.029595287516713142 0.20323729515075684 42 57 33 0 1 0
-0.04834967851638794 0.029454929754137993 0.20180879533290863 38 52 30 0 1 0
-0.047504812479019165 0.02934531308710575 0.20052428543567657 41 55 34 0 1 0
-0.04670960456132889 0.029214324429631233 0.19915077090263367 36 50 29 0 1 0
-0.045974671840667725 0.02905748225748539 0.19766981899738312 40 54 33 0 1 0
-0.0453207865357399 0.028865521773695946 0.19604220986366272 40 54 34 0 1 0
-0.04464248567819595 0.028691379353404045 0.1945015788078308 37 52 31 0 1 0
-0.04386211931705475 0.028571834787726402 0.19320692121982574 37 53 31 0 1 0
-0.04309552162885666 0.028449585661292076 0.1919066607952118 33 49 30 0 1 0
-0.04247291386127472 0.02826344408094883 0.19033701717853546 36 53 33 0 1 0
-0.04166347533464432 0.028169529512524605 0.18917204439640045 36 45 45 0 1 0
-0.040357790887355804 0.028306549414992332 0.18899880349636078 35 44 45 0 1 0
-0.0386631041765213 0.028617510572075844 0.18956111371517181 28 39 38 0 1 0
-0.03672086447477341 0.029032835736870766 0.19055405259132385 30 41 40 0 1 0
-0.03462210297584534 0.02950853668153286 0.19178615510463715 34 43 43 0 1 0
-0.032236456871032715 0.030099643394351006 0.19348455965518951 9 14 13 0 1 0
-0.015602976083755493 0.03684645891189575 0.220850870013237 11 8 12 0 1 0
-0.01443348079919815 0.03682264685630798 0.21982920169830322 10 9 13 0 1 0
-0.013308383524417877 0.0367814376950264 0.21873807907104492 9 8 11 0 1 0
-0.01212000846862793 0.03676847368478775 0.21776631474494934 9 8 10 0 1 0
-0.01097167283296585 0.03674003481864929 0.21673326194286346 15 14 19 0 1 0
-0.009842723608016968 0.036705099046230316 0.21567635238170624 13 11 16 0 1 0
-0.008732132613658905 0.036664269864559174 0.21459843218326569 9 8 12 0 1 0
-0.007552750408649445 0.03665269911289215 0.2136416882276535 11 10 14 0 1 0
-0.006364151835441589 0.03664581477642059 0.21270573139190674 11 10 15 0 1 0
-0.0053224265575408936 0.036582134664058685 0.21154457330703735 15 10 16 0 1 0
-0.004330292344093323 0.03650122135877609 0.21031883358955383 53 27 23 0 1 0
-0.0031484216451644897 0.03649576008319855 0.2093963474035263 64 31 22 0 1 0
-0.0014724209904670715 0.03667961061000824 0.20922107994556427 67 32 27 0 1 0
0.0005871802568435669 0.03700549900531769 0.20959679782390594 59 29 25 0 1 0
0.0026523470878601074 0.03732793778181076 0.20994794368743896 91 59 51 0 1 0
0.0503871887922287 0.054159894585609436 0.2735231816768646 92 61 53 0 1 0
0.0528605580329895 0.05446498841047287 0.2734643220901489 91 59 51 0 1 0
0.054488688707351685 0.05446000397205353 0.2722085416316986 86 55 47 0 1 0
0.055734068155288696 0.054319024085998535 0.2704369127750397 87 57 48 0 1 0
0.057460471987724304 0.05435223877429962 0.2693328857421875 90 59 51 0 1 0
0.059075728058815 0.05434668809175491 0.26808351278305054 89 58 50 0 1 0
0.060675397515296936 0.05433674901723862 0.26681986451148987 94 63 55 0 1 0
0.06226639449596405 0.05432490259408951 0.26555147767066956 93 62 53 0 1 0
0.06383474171161652 0.05430641770362854 0.2642608880996704 92 61 51 0 1 0
0.06545372307300568 0.054306335747241974 0.2630409896373749 93 62 52 0 1 0
0.06715242564678192 0.05433398485183716 0.26192501187324524 93 62 52 0 1 0
0.06886504590511322 0.05436670780181885 0.26082852482795715 94 63 53 0 1 0
0.0705638974905014 0.054395176470279694 0.25971734523773193 90 59 49 0 1 0
0.07217995822429657 0.05439687520265579 0.25851011276245117 90 59 49 0 1 0
0.07385921478271484 0.054419972002506256 0.2573818564414978 94 63 53 0 1 0
0.07555846869945526 0.05444999039173126 0.25627949833869934 94 63 53 0 1 0
0.07728716731071472 0.05448980629444122 0.2552128732204437 94 63 53 0 1 0
0.07901562750339508 0.05452974885702133 0.25414714217185974 91 61 51 0 1 0
0.08070218563079834 0.05455666035413742 0.2530359625816345 91 60 51 0 1 0
0.08242329955101013 0.054594770073890686 0.2519650161266327 91 60 51 0 1 0
0.08416415750980377 0.054639242589473724 0.2509167492389679 91 60 50 0 1 0
0.0859178900718689 0.05468779057264328 0.24988289177417755 91 60 50 0 1 0
0.08764791488647461 0.054729148745536804 0.24882438778877258 88 59 48 0 1 0
0.08930763602256775 0.054749324917793274 0.24769356846809387 90 59 49 0 1 0
0.09085851907730103 0.05473718047142029 0.24645362794399261 91 60 50 0 1 0
0.09235166013240814 0.05470871925354004 0.24516068398952484 89 58 48 0 1 0
0.09385965764522552 0.05468583106994629 0.24388955533504486 90 59 49 0 1 0
0.09537804126739502 0.05466710031032562 0.24263513088226318 88 57 47 0 1 0
0.09688700735569 0.05464661866426468 0.24137747287750244 89 58 48 0 1 0
0.09841327369213104 0.054632194340229034 0.2401425838470459 86 56 46 0 1 0
0.10002636909484863 0.05464375019073486 0.23899593949317932 87 56 46 0 1 0
0.10162906348705292 0.05465289205312729 0.23784282803535461 90 58 47 0 1 0
0.1032625138759613 0.05467137694358826 0.23672179877758026 89 58 49 0 1 0
0.10485425591468811 0.05467852205038071 0.2355651706457138 89 58 48 0 1 0
0.10634426772594452 0.05465773493051529 0.23431995511054993 90 59 50 0 1 0
0.10798883438110352 0.054680995643138885 0.23321883380413055 94 62 52 0 1 0
0.10966262221336365 0.05471273511648178 0.2321457713842392 92 61 50 0 1 0
0.1113501489162445 0.05474850535392761 0.23108626902103424 91 60 50 0 1 0
0.11297108232975006 0.054766297340393066 0.22997057437896729 93 62 52 0 1 0
0.11439093947410583 0.054729945957660675 0.22868619859218597 90 58 49 0 1 0
0.1157768964767456 0.05468559265136719 0.22738002240657806 93 60 51 0 1 0
0.11720980703830719 0.0546550527215004 0.22612012922763824 93 62 50 0 1 0
0.1184098869562149 0.05456356704235077 0.2246752679347992 89 61 50 0 1 0
0.11940410733222961 0.05441942811012268 0.22307410836219788 94 65 53 0 1 0
0.12065769731998444 0.05434592068195343 0.22169525921344757 93 62 53 0 1 0
0.12165307998657227 0.05420651286840439 0.22012118995189667 95 63 50 0 1 0
0.12228547036647797 0.05397520214319229 0.21827711164951324 93 61 51 0 1 0
0.123019278049469 0.05377352982759476 0.2165318727493286 90 59 47 0 1 0
0.12376497685909271 0.0535779669880867 0.21481384336948395 89 64 56 0 1 0
0.1250157356262207 0.053514137864112854 0.21349433064460754 87 62 56 0 1 0
-0.06277099251747131 0.053601086139678955 0.3511824309825897 95 66 60 0 1 0
-0.06070584058761597 0.053880512714385986 0.3512641191482544 96 67 57 0 1 0
-0.05886568874120712 0.0539250522851944 0.3501421809196472 94 64 55 0 1 0
-0.05699504166841507 0.05399946868419647 0.3491719365119934 92 61 50 0 1 0
-0.05512269586324692 0.05407442897558212 0.34820353984832764 97 66 56 0 1 0
-0.053265832364559174 0.05413424223661423 0.3471582531929016 95 64 55 0 1 0
-0.0514344647526741 0.05417110025882721 0.34599801898002625 98 65 57 0 1 0
-0.049623243510723114 0.05419134348630905 0.3447558283805847 96 65 55 0 1 0
-0.04780326038599014 0.05422064661979675 0.34355995059013367 97 66 56 0 1 0
-0.04599311947822571 0.05424296855926514 0.3423306941986084 96 65 55 0 1 0
-0.04420687258243561 0.05424739420413971 0.3410148322582245 97 66 56 0 1 0
-0.042410142719745636 0.05426233261823654 0.3397524654865265 96 65 55 0 1 0
-0.04064972698688507 0.05425082892179489 0.3383629322052002 95 64 54 0 1 0
-0.03889860212802887 0.0542350709438324 0.3369554579257965 95 64 54 0 1 0
-0.03718103468418121 0.05419725924730301 0.3354443311691284 93 65 54 0 1 0
-0.035268403589725494 0.05430510640144348 0.33463791012763977 92 64 54 0 1 0
-0.03346702456474304 0.05433148145675659 0.3334389328956604 95 65 55 0 1 0
-0.06094798073172569 0.0333157479763031 0.23126855492591858 38 41 25 0 1 0
-0.06031082570552826 0.03294670581817627 0.22863329946994781 35 50 29 0 1 0
-0.059395283460617065 0.03277776390314102 0.22695830464363098 36 50 29 0 1 0
-0.05858096480369568 0.03254995495080948 0.22501537203788757 37 51 33 0 1 0
-0.05783267319202423 0.03228897601366043 0.22292813658714294 43 56 34 0 1 0
-0.057095274329185486 0.03203130513429642 0.22086846828460693 40 51 32 0 1 0
-0.056260816752910614 0.03184378147125244 0.2191457599401474 42 54 34 0 1 0
-0.05540728569030762 0.03167526423931122 0.2175198644399643 37 49 29 0 1 0
-0.054590851068496704 0.031491100788116455 0.21583035588264465 39 53 32 0 1 0
-0.053824640810489655 0.03128425031900406 0.21404600143432617 35 48 25 0 1 0
-0.053077466785907745 0.031073911115527153 0.2122555673122406 41 55 31 0 1 0
-0.05234118551015854 0.030864888802170753 0.21048101782798767 42 55 31 0 1 0
-0.05161243677139282 0.03065899945795536 0.20873042941093445 40 55 31 0 1 0
-0.05090344697237015 0.030449295416474342 0.2069723755121231 39 53 31 0 1 0
-0.05013686418533325 0.030278263613581657 0.2053970843553543 41 55 34 0 1 0
-0.04936818778514862 0.030114272609353065 0.20386135578155518 41 56 31 0 1 0
-0.04859883338212967 0.029956260696053505 0.20236003398895264 40 55 31 0 1 0
-0.04777301102876663 0.02983321063220501 0.20102062821388245 39 53 29 0 1 0
-0.04695696383714676 0.029709411785006523 0.19968417286872864 39 53 32 0 1 0
-0.04620923101902008 0.029555005952715874 0.19822020828723907 39 53 32 0 1 0
-0.04554176330566406 0.029365209862589836 0.19660967588424683 40 54 33 0 1 0
-0.0448843389749527 0.02917628176510334 0.19501177966594696 38 52 31 0 1 0
-0.04413934797048569 0.029036032035946846 0.1936325877904892 35 51 31 0 1 0
-0.04333767294883728 0.0289276372641325 0.19239693880081177 35 51 30 0 1 0
-0.04266653209924698 0.02876039408147335 0.19091546535491943 37 53 34 0 1 0
-0.041988834738731384 0.02860119752585888 0.1894761025905609 33 43 40 0 1 0
-0.04085944592952728 0.028657278046011925 0.18895547091960907 36 46 45 0 1 0
-0.039281874895095825 0.028919192031025887 0.18930105865001678 36 46 45 0 1 0
-0.037401169538497925 0.029313577339053154 0.1901930719614029 29 38 38 0 1 0
-0.03540484607219696 0.029751436784863472 0.19125232100486755 34 43 43 0 1 0
-0.033357374370098114 0.030202625319361687 0.19235102832317352 30 37 35 0 1 0
-0.0163000226020813 0.03724007308483124 0.22066408395767212 10 9 12 0 1 0
-0.014688484370708466 0.037408486008644104 0.22043772041797638 9 8 12 0 1 0
-0.01376485824584961 0.03727845847606659 0.21898411214351654 11 10 13 0 1 0
-0.012523584067821503 0.03728713095188141 0.2181023508310318 10 9 12 0 1 0
-0.011389687657356262 0.03725132346153259 0.21704135835170746 11 10 15 0 1 0
-0.01024581491947174 0.037221260368824005 0.21600647270679474 11 10 14 0 1 0
-0.009137272834777832 0.03717812895774841 0.2149217128753662 11 11 16 0 1 0
-0.007974199950695038 0.03715889900922775 0.2139357179403305 12 10 15 0 1 0
-0.006775014102458954 0.03715541958808899 0.2130146026611328 11 10 15 0 1 0
-0.005666516721248627 0.0371166467666626 0.21195533871650696 13 11 16 0 1 0
-0.004701249301433563 0.0370229035615921 0.2106824666261673 30 13 15 0 1 0
-0.003616027534008026 0.03697867691516876 0.20960882306098938 62 29 18 0 1 0
-0.0021229758858680725 0.037093840539455414 0.20916031301021576 61 28 21 0 1 0
-0.00025997310876846313 0.03734920918941498 0.20925326645374298 69 35 31 0 1 0
0.0020239949226379395 0.037760086357593536 0.20993874967098236 73 40 34 0 1 0
0.04840278625488281 0.05432388186454773 0.2718973457813263 91 61 52 0 1 0
0.05035240948200226 0.05444353073835373 0.27113208174705505 92 60 53 0 1 0
0.05239701271057129 0.05459672957658768 0.2704915404319763 90 59 51 0 1 0
0.0533314049243927 0.05434499680995941 0.2683185935020447 92 61 53 0 1 0
0.05505923926830292 0.054384246468544006 0.26725006103515625 90 59 51 0 1 0
0.05668255686759949 0.05438645929098129 0.26604363322257996 89 58 48 0 1 0
0.05829189717769623 0.05438461899757385 0.2648240029811859 90 60 51 0 1 0
0.059881389141082764 0.05437677353620529 0.2635841965675354 91 59 52 0 1 0
0.061457857489585876 0.05436544865369797 0.26233384013175964 94 63 54 0 1 0
0.06305745244026184 0.054363176226615906 0.26111897826194763 93 62 52 0 1 0
0.06470859050750732 0.0543794110417366 0.2599736154079437 94 63 53 0 1 0
0.06640177965164185 0.054410479962825775 0.2588833272457123 93 62 52 0 1 0
0.068102166056633 0.054444313049316406 0.2578037977218628 92 61 51 0 1 0
0.06970420479774475 0.05444571375846863 0.25660860538482666 92 61 51 0 1 0
0.07133427262306213 0.05445718765258789 0.2554512321949005 90 59 49 0 1 0
0.0729750394821167 0.054472826421260834 0.25431013107299805 91 60 50 0 1 0
0.07464325428009033 0.05449794977903366 0.2532038688659668 94 63 53 0 1 0
0.07629801332950592 0.0545191690325737 0.2520848512649536 92 61 51 0 1 0
0.07795491814613342 0.05454155057668686 0.2509710490703583 92 62 53 0 1 0
0.07961681485176086 0.05456596612930298 0.24986539781093597 91 60 50 0 1 0
0.08131749927997589 0.05460301786661148 0.24880443513393402 90 59 49 0 1 0
0.08304117619991302 0.05464746803045273 0.24776943027973175 90 59 49 0 1 0
0.08476084470748901 0.054690778255462646 0.24673081934452057 91 60 50 0 1 0
0.08643786609172821 0.05472110956907272 0.2456483393907547 88 60 49 0 1 0
0.08802053332328796 0.05472294241189957 0.24447022378444672 90 61 50 0 1 0
0.08956798911094666 0.05471484363079071 0.24326051771640778 91 60 50 0 1 0
0.09108929336071014 0.05469975620508194 0.2420295923948288 93 62 52 0 1 0
0.0926198959350586 0.054688408970832825 0.24081355333328247 88 58 48 0 1 0
0.09412093460559845 0.054669201374053955 0.23957380652427673 89 58 48 0 1 0
0.09563842415809631 0.05465584248304367 0.2383558452129364 90 58 47 0 1 0
0.09724171459674835 0.05466847866773605 0.23722535371780396 90 58 46 0 1 0
0.09882557392120361 0.05467600375413895 0.2360796481370926 85 54 43 0 1 0
0.1004110723733902 0.05468461662530899 0.23493900895118713 85 53 43 0 1 0
0.10194981098175049 0.05468044430017471 0.23375876247882843 88 57 46 0 1 0
0.10338696837425232 0.05464813858270645 0.2324904501438141 91 62 51 0 1 0
0.10492444038391113 0.05464528501033783 0.23131893575191498 90 59 49 0 1 0
0.10656911134719849 0.05467323213815689 0.23024679720401764 90 59 49 0 1 0
0.10825327038764954 0.05471246689558029 0.22921104729175568 90 58 48 0 1 0
0.10986818373203278 0.054732710123062134 0.2281162589788437 94 61 52 0 1 0
0.11137828230857849 0.05472453683614731 0.22693419456481934 92 60 51 0 1 0
0.11269859969615936 0.05466531217098236 0.22559627890586853 94 62 52 0 1 0
0.11427135765552521 0.05467599630355835 0.2244773507118225 90 57 47 0 1 0
0.11569586396217346 0.05464722216129303 0.22323919832706451 89 58 46 0 1 0
0.11696867644786835 0.05457882583141327 0.2218834012746811 92 59 49 0 1 0
0.11814361810684204 0.05448587238788605 0.22045764327049255 94 64 53 0 1 0
0.11934040486812592 0.0544004961848259 0.2190597504377365 94 63 50 0 1 0
0.12048092484474182 0.05430201441049576 0.21762751042842865 95 62 55 0 1 0
0.12127961218357086 0.05411604791879654 0.21594081819057465 95 62 53 0 1 0
0.12203311920166016 0.05392123758792877 0.21423636376857758 94 62 51 0 1 0
0.12329721450805664 0.053861185908317566 0.2129359096288681 94 61 55 0 1 0
0.12423191964626312 0.053717948496341705 0.2113967388868332 87 61 55 0 1 0
0.12495043873786926 0.053521886467933655 0.2097112387418747 85 61 55 0 1 0
-0.06510837376117706 0.0537695437669754 0.3497360646724701 90 63 53 0 1 0
-0.06325776875019073 0.05384550243616104 0.34878841042518616 95 65 55 0 1 0
